# .PCD v0.7 - Point Cloud Data file format
VERSION 0.7
FIELDS x y z
SIZE 4 4 4
TYPE F F F
COUNT 1 1 1
WIDTH 1724
HEIGHT 1
VIEWPOINT 0 0 0 1 0 0 0
POINTS 1724
DATA ascii
512158.31 5403251 314.34
512158.28 5403249 316.94
512158.16 5403248 312.57001
512158.13 5403246.5 312.85001
512158.06 5403245 312.57999
512158 5403243.5 313.60999
512158 5403242 316.5
512157.94 5403240.5 316.87
512157.81 5403239.5 312.75
512157.84 5403237.5 317.64001
512157.75 5403236 315.16
512157.63 5403235 312.32999
512157.59 5403233.5 312.35999
512157.5 5403232 311.39999
512157.5 5403230.5 314.44
512157.44 5403229 314.92999
512157.38 5403227.5 313.56
512157.28 5403226 311.78
512157.22 5403225 311.45001
512157.16 5403223.5 311.48999
512157.09 5403222 311.45001
512157.03 5403220.5 311.60001
512157.03 5403218.5 315.35999
512157 5403217.5 315.32999
512156.88 5403216 312.26999
512156.81 5403214.5 312.28
512156.88 5403212.5 318.29001
512156.88 5403211 321.10001
512156.84 5403209.5 323.31
512156.78 5403208 323.59
512156.72 5403206.5 323.82999
512156.66 5403205.5 323.78
512156.63 5403204 324.32999
512156.56 5403202.5 324.07999
512156.5 5403201 323.32999
512156.41 5403199.5 322.45999
512156.34 5403198 321.64999
512156.09 5403197 311.67001
512156.03 5403195.5 311.64001
512155.97 5403194 311.54999
512155.91 5403192.5 311.47
512155.88 5403191 311.60999
512155.81 5403189.5 311.60001
512155.75 5403188 311.66
512155.69 5403186.5 311.67999
512155.63 5403185 311.64001
512155.56 5403183.5 311.66
512155.5 5403182 311.70999
512155.44 5403180.5 311.70001
512154.5 5403180 311.67999
512154.56 5403181.5 311.76001
512154.59 5403183 311.66
512154.63 5403184.5 311.62
512154.69 5403186 311.70999
512154.72 5403187.5 311.62
512154.75 5403189 311.63
512154.81 5403190.5 311.59
512154.84 5403192 311.53
512154.88 5403193.5 311.51999
512155 5403195 314.42999
512155.06 5403196.5 315.35001
512155.22 5403197.5 321.78
512155.28 5403199 322.54999
512155.34 5403200.5 323.44
512155.38 5403202 324.17999
512155.44 5403203.5 324.39999
512155.47 5403205 323.69
512155.5 5403206.5 322.98999
512155.53 5403208 322.35001
512155.56 5403209.5 321.70999
512155.59 5403211 320.97
512155.59 5403212.5 318.66
512155.81 5403213.5 329.14001
512155.84 5403215 329.10999
512155.88 5403216 329.10001
512155.69 5403218.5 315.54999
512155.75 5403220 315.37
512155.78 5403221.5 315.42999
512155.75 5403223 311.47
512155.81 5403224.5 311.51999
512155.84 5403226 311.51001
512155.88 5403227.5 311.5
512155.97 5403228.5 313.73001
512155.97 5403230 312.28
512156.06 5403231.5 313.35001
512156.06 5403233 312.34
512156.13 5403234.5 312.38
512156.22 5403236 315.84
512156.22 5403237.5 312.70999
512156.31 5403239 317.01001
512156.31 5403240.5 312.82999
512156.53 5403241 324.20001
512156.38 5403243.5 312.78
512156.5 5403244.5 316.97
512156.47 5403246.5 312.89999
512156.53 5403248 312.87
512156.56 5403249.5 312.73999
512156.66 5403250.5 317.12
512156.66 5403252.5 314.17999
512156.72 5403254 313.82999
512156.75 5403255.5 314.28
512156.81 5403256.5 315.01999
512156.81 5403258.5 312.59
512156.91 5403259.5 314.76001
512156.97 5403261 316.89999
512156.94 5403263 312.56
512157 5403264.5 312.56
512157.09 5403265.5 316.84
512157.09 5403267.5 312.57999
512157.13 5403268.5 312.56
512157.13 5403269.5 312.60001
512157.16 5403270.5 312.53
512157.19 5403271.5 312.54999
512157.19 5403272 312.57999
512157.25 5403272 316.42001
512157.25 5403272 315.16
512157.28 5403272.5 316.57001
512157.22 5403273 312.64999
512157.22 5403273.5 312.60999
512157.28 5403273 317.07001
512157.22 5403273.5 312.62
512157.19 5403274 312.57999
512157.19 5403274 312.54001
512157.25 5403273.5 315.56
512157.22 5403274 315.60999
512157.22 5403274 315.51001
512157.22 5403274 315.13
512157.22 5403274 316.39001
512157.22 5403274 316.51001
512157.22 5403274 316.44
512157.22 5403274 316.60999
512157.22 5403274 316.76999
512157.19 5403274 316.73001
512157.19 5403274 316.76999
512157.16 5403274 316.54001
512157.16 5403273.5 316.72
512157.06 5403273.5 312.54999
512157.03 5403273 312.56
512157 5403272 312.54001
512156.94 5403271 312.53
512156.91 5403269.5 312.62
512156.84 5403268.5 312.59
512156.81 5403267 313.89999
512156.75 5403266 312.64001
512156.75 5403264 316.76999
512156.63 5403263 312.75
512156.59 5403262 312.57001
512156.59 5403260 316.34
512156.47 5403259 312.57001
512156.41 5403258 312.60001
512156.38 5403256 315
512156.34 5403254.5 314.95999
512156.28 5403253.5 315.13
512156.19 5403252 312.72
512156.13 5403250.5 312.70001
512156.16 5403248.5 318.57001
512156.03 5403248 313.54999
512155.97 5403246.5 312.72
512155.94 5403244.5 315.76001
512156.06 5403242.5 325.51001
512156 5403241 325.92001
512155.81 5403240 317.88
512155.66 5403239 312.76001
512155.63 5403237.5 312.82001
512155.59 5403236 316.07999
512155.5 5403235 312.35999
512155.44 5403233.5 312.28
512155.38 5403232 313.09
512155.31 5403230.5 312.29999
512155.28 5403229 313.82001
512155.19 5403227.5 311.79001
512155.13 5403226 311.51001
512155.06 5403224.5 311.42001
512155.06 5403223 315.44
512155 5403221.5 315.42999
512155.16 5403219.5 326.51999
512155.13 5403218 329.10001
512155.06 5403216.5 329.09
512155.03 5403215 329.17999
512154.97 5403213.5 329.17001
512154.72 5403212.5 318.94
512154.69 5403211 321.31
512154.66 5403209.5 321.88
512154.63 5403208 322.53
512154.56 5403206.5 323.04001
512154.5 5403205 323.56
512154.47 5403203.5 324.23001
512154.41 5403202 324.62
512154.34 5403201 323.81
512154.28 5403199.5 322.95999
512154.19 5403198 322.14001
512154.13 5403196.5 321.42999
512153.88 5403195 311.69
512153.81 5403193.5 311.67999
512153.75 5403192 311.57999
512153.69 5403190.5 311.54999
512153.63 5403189 311.64999
512153.59 5403188 311.67001
512153.53 5403186.5 311.70999
512153.47 5403185 311.76001
512153.41 5403183.5 311.70001
512153.34 5403182 311.76999
512153.28 5403180.5 311.75
512152.34 5403180 311.79001
512152.38 5403181.5 311.76001
512152.41 5403183 311.73999
512152.47 5403184.5 311.70999
512152.5 5403186 311.78
512152.56 5403187.5 311.64999
512152.59 5403189 311.62
512152.63 5403190.5 311.69
512152.69 5403192 311.54999
512152.72 5403193.5 311.70999
512152.78 5403195 311.73001
512153 5403196 321.44
512153.06 5403197.5 322.13
512153.09 5403199 322.88
512153.16 5403200.5 323.56
512153.22 5403202 323.89001
512153.25 5403203.5 324.19
512153.31 5403205 324.66
512153.34 5403206 324.14001
512153.38 5403207.5 323.57001
512153.41 5403209 323
512153.44 5403210.5 322.45999
512153.5 5403212 323.13
512153.63 5403213 329.26999
512153.69 5403214.5 329.17999
512153.72 5403216 329.20999
512153.78 5403217.5 329.12
512153.81 5403219 329.37
512153.84 5403220.5 329.13
512153.84 5403222 326.53
512153.69 5403224 315.47
512153.75 5403225.5 315.37
512153.78 5403227 315.35001
512153.78 5403228.5 313.37
512153.81 5403230 312.29999
512153.88 5403231.5 312.25
512153.91 5403233 312.25
512153.94 5403234.5 312.34
512154.06 5403236 315.59
512154.03 5403237.5 312.84
512154.09 5403239 312.66
512154.31 5403239.5 324.47
512154.41 5403240.5 328.10999
512154.44 5403242 327.41
512154.47 5403243.5 326.60001
512154.31 5403246 313.89001
512154.34 5403248 312.73999
512154.38 5403249.5 312.70001
512154.44 5403251 312.66
512154.56 5403252 317.04999
512154.53 5403254 312.64001
512154.56 5403255.5 312.82001
512154.63 5403256.5 314.67999
512154.66 5403258.5 312.70001
512154.78 5403259 317.82999
512154.75 5403261 312.67999
512154.84 5403262.5 316.91
512154.88 5403264 316.01999
512154.88 5403265.5 313.85999
512154.91 5403267 312.60001
512154.97 5403268 313.95999
512154.97 5403269.5 312.62
512155 5403270.5 312.62
512155.03 5403271 312.62
512155.03 5403271.5 312.57999
512155.09 5403272 315.10999
512155.09 5403272 315.29001
512155.09 5403272.5 315.20999
512155.09 5403272.5 315.45001
512155.09 5403272.5 315.64999
512155.09 5403273 315.66
512155.09 5403273 315.67999
512155.09 5403273 316.81
512155.09 5403273 316.81
512155.03 5403274 312.67999
512155.09 5403273.5 317.12
512155.09 5403273.5 317
512155.03 5403274.5 312.70999
512155.09 5403273.5 317.41
512155 5403274.5 312.73001
512155 5403274.5 312.64999
512155 5403274.5 312.66
512155 5403274.5 312.75
512155.03 5403274 316.95001
512155.03 5403274 316.76001
512155.03 5403274 316.70999
512154.94 5403274.5 312.59
512155 5403273.5 316.91
512154.97 5403273 316.79001
512154.91 5403272.5 314.98001
512154.81 5403271.5 312.62
512154.78 5403270.5 312.57999
512154.75 5403269.5 313.91
512154.69 5403268 312.70999
512154.63 5403267 312.57999
512154.63 5403265.5 315.10001
512154.56 5403263.5 316.5
512154.5 5403262.5 316.03
512154.47 5403261 316.37
512154.44 5403259.5 318.06
512154.31 5403259 312.79001
512154.25 5403257.5 312.66
512154.22 5403256 314.82001
512154.16 5403254.5 314.51999
512154.13 5403253 317.12
512154.03 5403252 312.69
512154 5403250 315.63
512153.91 5403249 312.73001
512153.84 5403247.5 312.57999
512153.88 5403245.5 319.07001
512153.97 5403243.5 327.39999
512153.91 5403242 328.01001
512153.88 5403240.5 328.62
512153.81 5403239 329.12
512153.5 5403239 312.78
512153.5 5403237 317.64999
512153.41 5403236 315.54001
512153.38 5403234.5 316.23999
512153.25 5403233 312.23999
512153.19 5403231.5 312.25
512153.13 5403230 312.26001
512153.09 5403228.5 313.54999
512153.06 5403227 315.37
512153 5403225.5 315.45001
512153.16 5403223.5 327.51999
512153.13 5403222 329.14001
512153.06 5403220.5 329.17999
512153 5403219 329.14999
512152.94 5403217.5 329.26001
512152.91 5403216 329.20001
512152.84 5403214.5 329.29999
512152.78 5403213.5 329.29999
512152.72 5403212 329.39001
512152.56 5403210.5 323.31
512152.5 5403209 323.78
512152.47 5403208 324.37
512152.41 5403206 324.47
512152.34 5403205 324.04001
512152.28 5403203.5 323.73001
512152.22 5403202 324.92999
512152.13 5403200.5 322.92999
512152.06 5403199 322.57999
512152 5403197.5 321.87
512151.94 5403196 321.32001
512151.69 5403195 311.70999
512151.63 5403193.5 311.67999
512151.56 5403192 311.60999
512151.5 5403190.5 311.59
512151.44 5403189 311.64999
512151.38 5403187.5 311.69
512151.34 5403186 311.64999
512151.28 5403184.5 311.76001
512151.22 5403183 311.70999
512151.16 5403181.5 311.75
512151.09 5403180 311.79001
512150.13 5403180 311.78
512150.19 5403181.5 311.76001
512150.22 5403183 311.78
512150.25 5403184.5 311.70999
512150.31 5403186 311.70999
512150.34 5403187 311.67001
512150.38 5403188.5 311.69
512150.44 5403190 311.64001
512150.47 5403191.5 311.54001
512150.53 5403193 311.56
512150.56 5403194.5 311.73001
512150.69 5403196 315.48999
512150.84 5403197.5 321.57001
512150.88 5403199 321.92001
512150.94 5403200 322.32999
512151 5403201.5 322.63
512151.03 5403203 322.95001
512151.09 5403204.5 323.35999
512151.13 5403206 323.72
512151.19 5403207.5 324.07999
512151.25 5403209 324.42999
512151.28 5403210 325.04999
512151.41 5403211.5 329.35001
512151.47 5403213 329.54999
512151.5 5403214.5 329.29001
512151.53 5403216 329.23999
512151.59 5403217 329.25
512151.63 5403219 329.23999
512151.66 5403220 329.23999
512151.69 5403221.5 329.16
512151.75 5403223 329.20999
512151.78 5403224.5 329.12
512151.53 5403227 312.07999
512151.59 5403228.5 312.14999
512151.66 5403230 313.57999
512151.69 5403231.5 313.66
512151.72 5403233 312.19
512151.91 5403233.5 321.28
512152 5403235 323.53
512152.03 5403236.5 323.20999
512152.06 5403238 322.92001
512152.22 5403238.5 330.04999
512152.25 5403240 328.92001
512152.31 5403241.5 329.60999
512152.34 5403243 328.95001
512152.38 5403244.5 328.31
512152.38 5403246 327.56
512152.44 5403247.5 327.06
512152.41 5403249.5 323.22
512152.28 5403252 312.79999
512152.34 5403253.5 312.76999
512152.41 5403254.5 315.63
512152.41 5403256.5 312.67001
512152.5 5403258 315.04001
512152.56 5403259 316.54001
512152.63 5403260.5 316.56
512152.59 5403262.5 312.70001
512152.72 5403263.5 316.70999
512152.69 5403265.5 312.63
512152.72 5403267 312.67001
512152.75 5403268 312.60999
512152.78 5403269.5 312.59
512152.81 5403270 312.66
512152.84 5403271 312.57999
512152.84 5403271.5 312.64999
512152.84 5403272 312.64999
512152.84 5403272 312.64999
512152.88 5403272.5 312.66
512152.88 5403272.5 312.62
512152.88 5403273 312.67001
512152.84 5403273 312.62
512152.84 5403273 312.53
512152.84 5403273.5 312.67999
512152.84 5403273.5 312.60999
512152.84 5403273.5 312.64001
512152.84 5403274 312.67001
512152.84 5403274 312.59
512152.88 5403273.5 315.32999
512152.88 5403273.5 315.20001
512152.88 5403274 315.39001
512152.84 5403274 315.5
512152.84 5403274 315.20999
512152.84 5403274 315.26999
512152.84 5403274 315.41
512152.81 5403274 315.35001
512152.81 5403274 315.45001
512152.81 5403273.5 315.48999
512152.75 5403273.5 312.57999
512152.72 5403273 312.60001
512152.69 5403272.5 312.60999
512152.63 5403271.5 312.63
512152.59 5403270.5 312.60001
512152.53 5403269 312.57999
512152.5 5403268 312.63
512152.44 5403266.5 313.85001
512152.47 5403264.5 317.88
512152.34 5403264 314.12
512152.28 5403262.5 312.64001
512152.28 5403260.5 316.82999
512152.22 5403259.5 316.85999
512152.13 5403258.5 315.04001
512152.06 5403257.5 312.73999
512152 5403256 312.67001
512151.94 5403254.5 312.73999
512151.88 5403253 312.79999
512151.81 5403251.5 312.75
512152 5403249 327.04001
512151.94 5403247 327.57001
512151.88 5403246 328.20999
512151.84 5403244.5 328.89999
512151.81 5403243 329.44
512151.75 5403241.5 330.06
512151.69 5403240 328.91
512151.63 5403238.5 328.95999
512151.47 5403238 322.89001
512151.41 5403236.5 323.51001
512151.38 5403235 324.53
512151.31 5403233.5 324.48001
512151.06 5403233 312.19
512151 5403231.5 313.62
512150.91 5403230 312.13
512150.88 5403228.5 312.17001
512151.09 5403226 329.17999
512151.03 5403224.5 329.14001
512151 5403223 329.17999
512150.94 5403221.5 329.25
512150.88 5403220 329.19
512150.84 5403219 330.67999
512150.75 5403217.5 329.31
512150.69 5403216 329.34
512150.63 5403214.5 329.39999
512150.59 5403213 329.42001
512150.53 5403211.5 329.47
512150.38 5403210.5 324.28
512150.31 5403209 323.95999
512150.25 5403207.5 323.62
512150.16 5403206 323.14999
512150.13 5403204.5 322.85999
512150.03 5403203 322.12
512149.97 5403202 322.07001
512149.91 5403200.5 321.75
512149.84 5403199 321.37
512149.59 5403197.5 311.75
512149.53 5403196 311.73001
512149.47 5403194.5 311.70001
512149.41 5403193 311.63
512149.38 5403191.5 311.60001
512149.31 5403190 311.64999
512149.25 5403188.5 311.67999
512149.19 5403187.5 311.64001
512149.13 5403186 311.78
512149.06 5403184.5 311.73001
512149 5403183 311.79999
512148.94 5403181.5 311.82001
512148.88 5403180 311.79001
512147.91 5403179.5 311.76999
512147.97 5403181 311.85001
512148 5403182.5 311.79001
512148.06 5403184 311.85001
512148.09 5403185.5 311.76999
512148.13 5403187 311.72
512148.19 5403188.5 311.75
512148.22 5403190 311.72
512148.28 5403191.5 311.67001
512148.31 5403193 311.63
512148.34 5403194.5 311.48001
512148.41 5403196 311.53
512148.44 5403197.5 311.64999
512148.47 5403198.5 311.70001
512148.53 5403200 311.79001
512148.75 5403201.5 321.39999
512148.81 5403203 321.70999
512148.88 5403204.5 322.14001
512148.91 5403206 322.67001
512148.94 5403207 322.81
512149 5403208.5 323.20999
512149.13 5403210 326.53
512149.22 5403211.5 329.51001
512149.25 5403213 329.45999
512149.28 5403214 329.41
512149.34 5403215.5 329.42001
512149.38 5403217 330.62
512149.38 5403218.5 325.89001
512149.5 5403220 331.64001
512149.5 5403221.5 329.23999
512149.53 5403223 329.29001
512149.59 5403224 329.20001
512149.63 5403225.5 328.56
512149.63 5403227 327.89999
512149.66 5403228.5 327.17001
512149.47 5403231 312.19
512149.5 5403232.5 312.14999
512149.81 5403233 327.04999
512149.78 5403234.5 323.54999
512149.81 5403236 323.51999
512149.91 5403237.5 326
512150 5403238.5 328.92999
512150.03 5403240 328.89999
512150.09 5403241.5 328.95001
512150.13 5403243 328.87
512150.16 5403244.5 328.91
512150.22 5403245.5 330.03
512150.25 5403247 329.19
512150.31 5403248.5 328.59
512150.34 5403250.5 327.89001
512150.38 5403252 327.34
512150.38 5403253.5 326.57999
512150.41 5403255 325.59
512150.25 5403258 312.76999
512150.34 5403259 315.14999
512150.41 5403260.5 316.54999
512150.41 5403262.5 312.76001
512150.44 5403264 312.81
512150.53 5403265 315.23999
512150.56 5403266.5 314.39001
512150.59 5403268 313.85001
512150.59 5403269 312.67999
512150.63 5403270 312.67001
512150.66 5403270.5 315.03
512150.69 5403271 315.01999
512150.69 5403271.5 314.60999
512150.66 5403272 312.70999
512150.66 5403272.5 312.64001
512150.66 5403272.5 312.64999
512150.66 5403272.5 312.70999
512150.66 5403273 312.62
512150.66 5403273 312.66
512150.66 5403273 312.67001
512150.66 5403273.5 312.64001
512150.63 5403273.5 312.66
512150.63 5403273.5 312.62
512150.63 5403273.5 312.64001
512150.63 5403274 312.67001
512150.63 5403274 312.59
512150.63 5403274 312.67999
512150.63 5403274 312.60999
512150.63 5403274 312.63
512150.59 5403274 312.67999
512150.59 5403274 312.63
512150.59 5403274 312.64001
512150.56 5403274 312.64999
512150.56 5403274 312.64001
512150.53 5403273.5 312.62
512150.5 5403273 312.62
512150.47 5403272 312.67001
512150.47 5403271 314.91
512150.47 5403269.5 317.09
512150.34 5403269 312.73999
512150.28 5403267.5 312.60999
512150.25 5403266.5 314.28
512150.22 5403265 314.75
512150.13 5403264 312.66
512150.06 5403262.5 312.72
512150 5403261 312.67001
512150 5403259.5 314.64999
512149.91 5403258.5 312.81
512150.06 5403255.5 325.70999
512150 5403254 326.67001
512149.97 5403252.5 327.35001
512149.91 5403251 327.89999
512149.88 5403249.5 328.57001
512149.81 5403248.5 329.14001
512149.78 5403247 330.09
512149.69 5403245.5 328.92999
512149.66 5403244 328.87
512149.59 5403242.5 328.91
512149.53 5403241.5 328.89001
512149.47 5403240 328.94
512149.41 5403238.5 328.91
512149.38 5403237 329.92001
512149.22 5403236 323.57999
512149.22 5403234.5 326.91
512149.16 5403233 327.57999
512148.91 5403232.5 317.01001
512149.03 5403230 327.20999
512149 5403228.5 327.92001
512148.97 5403227 330.04001
512148.91 5403225.5 329.97
512148.84 5403224.5 329.31
512148.78 5403223 329.28
512148.72 5403221.5 329.35001
512148.69 5403220 330.85001
512148.53 5403219 324.53
512148.56 5403217 330.48001
512148.5 5403215.5 329.42001
512148.44 5403214.5 329.47
512148.38 5403213 329.54999
512148.31 5403211.5 329.51001
512148.25 5403210 329.57999
512148.06 5403209 322.82001
512148 5403207.5 322.29001
512147.94 5403206 321.98999
512147.88 5403204.5 321.60001
512147.81 5403203 321.32001
512147.56 5403202 311.79001
512147.5 5403200.5 311.76001
512147.44 5403199 311.67999
512147.38 5403197.5 311.51999
512147.31 5403196 311.54001
512147.25 5403194.5 311.62
512147.19 5403193 311.54999
512147.13 5403191.5 311.60999
512147.09 5403190 311.69
512147.03 5403188.5 311.63
512146.97 5403187 311.76001
512146.91 5403185.5 311.75
512146.84 5403184 311.89999
512146.78 5403182.5 311.84
512146.72 5403181 311.95001
512146.66 5403180 311.92001
512145.69 5403179.5 311.95001
512145.75 5403181 311.89999
512145.78 5403182.5 311.85999
512145.84 5403184 311.82001
512145.88 5403185.5 311.85999
512145.91 5403187 311.78
512145.97 5403188.5 311.70999
512146 5403190 311.75
512146.06 5403191.5 311.69
512146.09 5403193 311.64001
512146.13 5403194 311.63
512146.16 5403195.5 311.54001
512146.22 5403197 311.53
512146.25 5403198.5 311.57999
512146.31 5403200 311.5
512146.34 5403201.5 311.67001
512146.41 5403203 311.73001
512146.44 5403204.5 311.70999
512146.66 5403205.5 321.31
512146.72 5403207 321.51001
512146.75 5403208.5 321.92001
512146.91 5403210 326.73001
512147 5403211 329.56
512147.03 5403212.5 329.54999
512147.09 5403214 329.48001
512147.13 5403215.5 329.48999
512147.16 5403217 329.01999
512147.22 5403218.5 330.23999
512147.28 5403219.5 331.76999
512147.28 5403221 329.44
512147.34 5403222.5 329.35001
512147.38 5403224 329.35001
512147.41 5403225.5 328.91
512147.44 5403227 328.91
512147.5 5403228.5 328.98001
512147.56 5403229.5 330.03
512147.56 5403231.5 328.10001
512147.63 5403232.5 330.04999
512147.66 5403234 328.47
512147.69 5403235.5 327.87
512147.75 5403237 328.92999
512147.78 5403238.5 328.85999
512147.84 5403240 328.95001
512147.88 5403241 329.72
512147.94 5403242.5 329.67001
512147.97 5403244 329.04001
512148 5403245.5 328.88
512148.03 5403247 328.89999
512148.09 5403248.5 328.89999
512148.16 5403250 329.98001
512148.19 5403251.5 329.48999
512148.22 5403253 328.76999
512148.25 5403254.5 328.25
512148.28 5403256 327.56
512148.09 5403259 312.84
512148.13 5403260.5 312.78
512148.19 5403262 312.72
512148.22 5403263.5 312.78
512148.28 5403265 312.70001
512148.31 5403266.5 312.69
512148.38 5403267.5 315.82999
512148.38 5403269 312.98001
512148.44 5403269.5 314.37
512148.47 5403270 316.23999
512148.5 5403270.5 316.85001
512148.5 5403271 316.81
512148.44 5403271.5 313.70999
512148.47 5403272 314.12
512148.44 5403272.5 312.92001
512148.47 5403272 314.59
512148.47 5403272.5 314.48999
512148.47 5403272.5 314.57001
512148.47 5403272.5 314.53
512148.47 5403273 314.72
512148.47 5403273 314.92001
512148.44 5403273 314.72
512148.44 5403273 315.17999
512148.44 5403273.5 314.32999
512148.44 5403273.5 314.14001
512148.41 5403274 313.09
512148.41 5403273.5 314.42001
512148.41 5403273.5 314.41
512148.41 5403273.5 314.42999
512148.41 5403273.5 314.32001
512148.38 5403274 313.76001
512148.38 5403273.5 313.59
512148.34 5403273 314.91
512148.31 5403272.5 314.79001
512148.28 5403272 314.09
512148.28 5403270.5 316.76001
512148.25 5403269.5 317.07001
512148.13 5403269 313.07001
512148.13 5403267 316.16
512148.03 5403266.5 312.70001
512148.03 5403264 317.76999
512147.91 5403263.5 312.75
512147.84 5403262.5 312.75
512147.88 5403260.5 317.75
512147.97 5403258 327.12
512146.78 5403265 256
512147.88 5403255 328.28
512147.84 5403253.5 328.87
512147.78 5403252 329.41
512147.72 5403251 330.04001
512147.66 5403249.5 328.92001
512147.59 5403248 328.95001
512147.53 5403246.5 328.91
512147.5 5403245.5 328.87
512147.44 5403244 329.48001
512147.38 5403242.5 329.75
512147.34 5403241 329.76001
512147.25 5403239.5 328.97
512147.19 5403238.5 328.92001
512147.13 5403237 328.92999
512147.09 5403235.5 328.5
512147.03 5403234 329.98001
512146.97 5403233 328.97
512146.94 5403231 330.01999
512146.84 5403230 328.92001
512146.78 5403228.5 328.92999
512146.72 5403227 328.87
512146.66 5403225.5 328.95001
512146.63 5403224 329.51001
512146.56 5403222.5 329.37
512146.5 5403221.5 329.5
512146.44 5403220 329.47
512146.38 5403218.5 329.01999
512146.31 5403217 329
512146.28 5403215.5 329.48999
512146.22 5403214 329.59
512146.09 5403213 326.69
512146.03 5403211.5 326.66
512146 5403210 326.67999
512145.88 5403208.5 324.88
512145.75 5403207 321.20001
512145.53 5403206 311.66
512145.47 5403204.5 311.64001
512145.41 5403203 311.72
512145.34 5403201.5 311.59
512145.28 5403200 311.59
512145.22 5403198.5 311.60999
512145.16 5403197 311.56
512145.09 5403196 311.60999
512145.03 5403194.5 311.63
512144.97 5403193 311.76001
512144.91 5403191.5 311.73999
512144.88 5403190 311.66
512144.81 5403188.5 311.81
512144.75 5403187 311.81
512144.69 5403185.5 311.81
512144.63 5403184 311.89001
512144.56 5403182.5 311.85001
512144.5 5403181 311.92999
512144.44 5403179.5 311.98001
512143.47 5403179.5 311.98001
512143.53 5403181 312
512143.56 5403182.5 311.94
512143.63 5403184 311.87
512143.66 5403185.5 311.88
512143.69 5403187 311.79001
512143.75 5403188 311.76999
512143.78 5403189.5 311.78
512143.81 5403191 311.72
512143.88 5403192.5 311.75
512143.91 5403194 311.69
512143.97 5403195.5 311.60999
512144 5403197 311.60001
512144.03 5403198.5 311.60001
512144.09 5403200 311.62
512144.16 5403201.5 312.29999
512144.19 5403203 312.97
512144.25 5403204.5 312.60001
512144.25 5403206 311.62
512144.31 5403207.5 311.73001
512144.38 5403209 311.76001
512144.47 5403210 314.92999
512144.72 5403211 326.82001
512144.75 5403212.5 326.70001
512144.81 5403214 326.69
512144.84 5403215.5 326.76001
512144.94 5403217 329.54999
512145 5403218.5 329.53
512145.03 5403219.5 329.54999
512145.06 5403221 329.48999
512145.13 5403222.5 329.51001
512145.16 5403224 330.01999
512145.19 5403225.5 329.17999
512145.22 5403227 328.95001
512145.28 5403228.5 328.89999
512145.31 5403229.5 328.98999
512145.38 5403231 328.94
512145.41 5403232.5 328.92001
512145.44 5403234 328.98001
512145.5 5403235.5 328.92001
512145.53 5403237 328.94
512145.56 5403238.5 328.95999
512145.63 5403240 328.89999
512145.66 5403241 328.98999
512145.72 5403242.5 329.59
512145.75 5403244 328.92999
512145.78 5403245.5 328.92999
512145.84 5403247 328.88
512145.88 5403248.5 328.97
512145.91 5403250 328.89999
512145.97 5403251.5 328.92001
512146 5403253 328.95001
512146.06 5403254.5 328.91
512146.09 5403255.5 329.60999
512146.13 5403257 328.95999
512146.16 5403258.5 328.31
512146.19 5403260 327.73999
512146.22 5403262 327.10001
512146.09 5403264.5 316.04001
512146.09 5403266.5 312.76999
512146.19 5403267 316.76001
512146.22 5403268.5 316.45999
512146.22 5403269.5 315.73001
512146.25 5403270 315.70001
512146.25 5403270.5 315.35999
512146.28 5403271 316.85999
512146.25 5403271.5 314.01999
512146.25 5403272 314.48001
512146.22 5403272 312.87
512146.25 5403272 314.35999
512146.25 5403272.5 314.14999
512146.25 5403272.5 314.66
512146.25 5403272.5 314.82001
512146.25 5403273 314.78
512146.22 5403273 313.98001
512146.22 5403273 313.73001
512146.22 5403273.5 314.32001
512146.22 5403273.5 313.88
512146.19 5403273.5 313.5
512146.19 5403273.5 313.45999
512146.19 5403274 312.73999
512146.16 5403274 312.70999
512146.16 5403274 312.76999
512146.16 5403274 312.70001
512146.13 5403274 312.73999
512146.13 5403273.5 313.73999
512146.13 5403273 314.04001
512146.09 5403272.5 314.07001
512146.06 5403271.5 314.45999
512146.03 5403270.5 314.97
512146 5403269.5 315.51001
512145.94 5403268.5 315.48001
512145.91 5403267 315.82999
512145.84 5403266 315.56
512145.97 5403263 326.66
512145.91 5403261.5 327.41
512145.88 5403260 327.95001
512145.81 5403259 328.56
512145.78 5403257.5 329.12
512145.75 5403256 330.06
512145.66 5403255 328.95999
512145.63 5403253.5 328.87
512145.56 5403252 328.94
512145.5 5403251 329.03
512145.44 5403249.5 328.87
512145.38 5403248 328.95999
512145.34 5403246.5 328.87
512145.28 5403245.5 328.92001
512145.22 5403244 329.57001
512145.16 5403242.5 328.88
512145.09 5403241 328.97
512145.03 5403239.5 328.92001
512144.97 5403238.5 328.98001
512144.91 5403237 328.95001
512144.88 5403235.5 330.04999
512144.81 5403234 328.94
512144.75 5403232.5 328.88
512144.69 5403231 328.97
512144.63 5403229.5 329.29001
512144.56 5403228.5 328.92999
512144.5 5403227 328.97
512144.44 5403225.5 328.89001
512144.41 5403224 328.95999
512144.34 5403222.5 329.48999
512144.28 5403221.5 329.48999
512144.22 5403220 329.62
512144.16 5403218.5 329.57999
512144.06 5403217 326.70001
512144 5403215.5 326.75
512143.94 5403214 326.70999
512143.91 5403213 327.75
512143.53 5403212 311.73999
512143.47 5403210.5 311.76999
512143.41 5403209 311.70999
512143.38 5403207.5 311.60001
512143.31 5403206 311.66
512143.25 5403204.5 312.54001
512143.19 5403203 311.59
512143.13 5403201.5 311.62
512143.06 5403200 311.59
512143 5403198.5 311.64001
512142.94 5403197 311.76999
512142.88 5403196 311.67999
512142.81 5403194 311.72
512142.75 5403193 311.75
512142.69 5403191.5 311.70999
512142.63 5403190 311.82999
512142.59 5403188.5 311.79001
512142.53 5403187 311.87
512142.47 5403185.5 311.88
512142.41 5403184 311.87
512142.34 5403182.5 312
512142.28 5403181 312.01001
512142.22 5403179.5 311.98999
512141.28 5403179.5 311.97
512141.31 5403181 312.03
512141.38 5403182.5 311.94
512141.41 5403184 311.92001
512141.44 5403185.5 311.89999
512141.47 5403187 311.85999
512141.53 5403188 311.91
512141.56 5403189.5 311.79999
512141.63 5403191 311.81
512141.66 5403192.5 311.79999
512141.69 5403194 311.73999
512141.75 5403195.5 311.75
512141.78 5403197 311.73001
512141.84 5403198.5 311.67999
512141.88 5403200 311.69
512141.91 5403201.5 311.59
512141.97 5403203 311.64999
512142 5403204.5 311.64999
512142.06 5403206 311.60001
512142.13 5403207.5 313.07999
512142.19 5403210.5 311.70001
512142.22 5403212 311.70999
512142.41 5403213 319.57001
512142.56 5403214 324.23001
512142.66 5403215.5 327.70001
512142.69 5403217 326.64001
512142.72 5403218.5 326.73001
512142.78 5403220 326.70999
512142.88 5403221 329.57999
512142.91 5403222.5 329.76001
512142.94 5403224 328.85001
512142.97 5403225.5 328.95999
512143.03 5403227 328.94
512143.06 5403228.5 328.92999
512143.13 5403229.5 328.98999
512143.16 5403231 328.94
512143.19 5403232.5 328.95001
512143.25 5403234 329.01999
512143.28 5403235.5 328.51001
512143.31 5403237 329.14001
512143.38 5403238.5 329.98999
512143.41 5403240 329
512143.44 5403241.5 328.94
512143.5 5403242.5 328.92001
512143.53 5403244 328.98999
512143.59 5403245.5 328.92999
512143.63 5403247 328.88
512143.66 5403248.5 328.95001
512143.72 5403250 329.31
512143.75 5403251.5 328.89999
512143.78 5403253 328.91
512143.84 5403254 329.10999
512143.88 5403256 328.94
512143.91 5403257 328.89001
512143.97 5403258.5 328.98001
512144.03 5403260 330.04999
512144.06 5403261.5 329.01999
512144.09 5403263 328.48999
512144.13 5403264.5 327.79999
512144.13 5403266 327.19
512144.16 5403267 326.64999
512144.16 5403268 325.76001
512144.03 5403270 315.22
512144.03 5403270.5 315.29001
512144.03 5403271 314.87
512144.03 5403271.5 314.63
512144.03 5403272 314.73001
512144.03 5403272 314.72
512144.03 5403272 314.23999
512144 5403272.5 312.79001
512144 5403273 312.78
512144 5403273 312.70001
512144 5403273 312.79001
512144 5403273.5 312.73999
512144 5403273.5 312.70999
512144 5403273.5 312.73001
512144 5403273.5 312.73999
512143.97 5403273.5 312.70999
512143.97 5403274 312.75
512143.97 5403274 312.73001
512143.97 5403274 312.75
512143.97 5403274 312.70001
512143.94 5403274 312.67001
512143.94 5403274 312.69
512143.91 5403273.5 312.76001
512143.88 5403273.5 312.73001
512143.88 5403273 312.70001
512143.88 5403271.5 314.60001
512143.81 5403270.5 314.92001
512143.94 5403268 325.98999
512143.91 5403267 327.06
512143.88 5403265.5 327.62
512143.84 5403264 328.29999
512143.78 5403262.5 328.82999
512143.75 5403261.5 329.42999
512143.69 5403260 330.07001
512143.63 5403259 328.92999
512143.56 5403257.5 328.95001
512143.5 5403256 328.95001
512143.47 5403255 329.70001
512143.41 5403253.5 328.91
512143.34 5403252.5 328.88
512143.31 5403251 328.89999
512143.25 5403249.5 329.01999
512143.19 5403248 328.89999
512143.13 5403246.5 328.94
512143.06 5403245.5 328.92999
512143 5403244 328.92999
512142.94 5403242.5 328.95999
512142.91 5403241 328.92999
512142.88 5403239.5 329.98999
512142.78 5403238.5 329.14001
512142.72 5403237 328.44
512142.63 5403235.5 327.89001
512142.63 5403234 328.94
512142.56 5403232.5 328.95999
512142.5 5403231 328.95999
512142.44 5403230 328.97
512142.38 5403228.5 329.01001
512142.31 5403227 328.89001
512142.25 5403225.5 328.89001
512142.19 5403224 328.95999
512142.16 5403222.5 330
512142.03 5403221.5 326.78
512141.97 5403220 326.69
512141.91 5403218.5 326.66
512141.88 5403217 327.5
512141.75 5403216 323.95001
512141.47 5403215 311.76001
512141.41 5403213.5 311.73001
512141.34 5403212 311.78
512141.28 5403210.5 311.63
512141.25 5403209 312.60999
512141.16 5403207.5 311.64999
512141.09 5403206 311.67001
512141.03 5403204.5 311.63
512140.97 5403203 311.64999
512140.91 5403201.5 311.69
512140.88 5403200 311.60999
512140.81 5403198.5 311.75
512140.75 5403197 311.64999
512140.69 5403195.5 311.72
512140.63 5403194 311.73001
512140.56 5403193 311.70001
512140.5 5403191.5 311.87
512140.44 5403190 311.78
512140.38 5403188.5 311.91
512140.34 5403187 311.91
512140.25 5403185.5 311.91
512140.22 5403184 312.01001
512140.16 5403182.5 311.98001
512140.09 5403181 312.01999
512140.03 5403179.5 312.12
512139.09 5403179.5 312.13
512139.13 5403181 312.07001
512139.16 5403182.5 312.07999
512139.22 5403184 311.98001
512139.25 5403185.5 311.91
512139.31 5403187 311.88
512139.34 5403188 311.92999
512139.38 5403189.5 311.82999
512139.44 5403191 311.94
512139.47 5403192.5 311.82001
512139.5 5403194 311.70999
512139.56 5403195.5 311.79999
512139.59 5403197 311.75
512139.66 5403198.5 311.75
512139.69 5403200 311.73999
512139.75 5403201.5 311.64999
512139.78 5403203 311.66
512139.81 5403204.5 311.67001
512139.88 5403206 311.73001
512139.91 5403207.5 311.67001
512139.94 5403209 311.60999
512140 5403210.5 311.64999
512140.06 5403212 312.98001
512140.09 5403213.5 312.07999
512140.13 5403215 311.73999
512140.16 5403216.5 311.67999
512140.22 5403218 311.70001
512140.25 5403219 311.70999
512140.59 5403220 326.79999
512140.63 5403221 327.54999
512140.69 5403222.5 328.69
512140.75 5403224 329.04999
512140.81 5403225.5 329.64001
512140.84 5403227 328.92001
512140.88 5403228.5 328.89001
512140.94 5403230 329.45999
512140.97 5403231 329.95999
512141 5403232.5 328.98001
512141.06 5403234 330
512140.88 5403236.5 315.92999
512141.13 5403237 327.17999
512141.16 5403238.5 327.75
512141.22 5403240 328.42001
512141.25 5403241.5 328.95999
512141.31 5403242.5 329.57001
512141.38 5403244 329.84
512141.38 5403245.5 328.88
512141.44 5403247 328.89999
512141.47 5403248.5 328.94
512141.53 5403250 328.91
512141.56 5403251.5 328.97
512141.63 5403252.5 330.57001
512141.66 5403254 329.78
512141.72 5403255.5 329.79001
512141.75 5403257 328.97
512141.78 5403258.5 328.92999
512141.81 5403260 328.85001
512141.88 5403261.5 328.97
512141.91 5403263 328.92999
512141.97 5403264 330.04999
512141.97 5403265.5 329.39001
512142 5403266.5 328.85001
512142.03 5403267.5 328.47
512142.03 5403268.5 328.16
512142.03 5403269 327.85999
512142.06 5403269.5 327.78
512142.06 5403269.5 327.54999
512142.06 5403270 327.57001
512142.06 5403270 327.57001
512142.03 5403270.5 326.98001
512142.03 5403270.5 327.07999
512142.03 5403270.5 327.04001
512142.03 5403271 327.19
512142.03 5403271 327.26001
512142.03 5403271 327.17001
512142.03 5403271 327.09
512142.03 5403271.5 327.01999
512142 5403271.5 326.95001
512142 5403271.5 327.03
512142 5403271.5 326.95999
512142 5403271.5 326.95999
512142 5403272 327.01001
512141.97 5403272 326.92001
512141.97 5403272 326.91
512141.97 5403272 326.88
512141.97 5403272 326.89001
512141.94 5403271.5 326.95999
512141.91 5403271 327.14999
512141.91 5403270.5 327.07999
512141.88 5403270 327.73001
512141.84 5403269 328.07001
512141.81 5403267.5 328.64001
512141.75 5403266.5 329.17001
512141.72 5403265 329.98001
512141.66 5403264 328.97
512141.59 5403262.5 328.89999
512141.53 5403261.5 328.89999
512141.5 5403260 328.89999
512141.44 5403259 328.88
512141.38 5403257.5 328.95001
512141.34 5403256 329.73001
512141.28 5403255 329.81
512141.22 5403253.5 329.78
512141.16 5403252.5 328.88
512141.13 5403251 328.89001
512141.06 5403249.5 328.95999
512141 5403248 328.89999
512140.94 5403246.5 328.92999
512140.88 5403245.5 329.07001
512140.84 5403244 329.60999
512140.78 5403242.5 328.98999
512140.69 5403241 328.39001
512140.03 5403243 292.17999
512140.56 5403238.5 327.14999
512140.44 5403237.5 324.23001
512140.19 5403237 312.81
512140.13 5403235.5 312.79001
512140.38 5403232.5 330.04001
512140.31 5403231 329.44
512140.25 5403230 328.81
512140.16 5403228.5 328.22
512140.13 5403227 329.57999
512140.06 5403225.5 329.04999
512140 5403224 328.38
512139.94 5403222.5 328.73999
512139.88 5403221 328.89001
512139.53 5403221 311.67999
512139.47 5403219.5 311.70999
512139.41 5403218 311.64001
512139.34 5403216.5 311.57999
512139.28 5403215 312.10001
512139.22 5403213.5 312.57001
512139.16 5403212 311.57999
512139.09 5403210.5 311.63
512139.03 5403209 311.60999
512138.97 5403207.5 311.60001
512138.91 5403206 311.63
512138.84 5403204.5 311.56
512138.81 5403203 311.67001
512138.75 5403201.5 311.70001
512138.69 5403200 311.69
512138.63 5403198.5 311.78
512138.56 5403197 311.73001
512138.5 5403195.5 311.82001
512138.44 5403194 311.87
512138.38 5403192.5 311.75
512138.31 5403191 311.85001
512138.25 5403190 311.82999
512138.19 5403188.5 311.85999
512138.13 5403187 311.92999
512138.09 5403185.5 311.89999
512138.03 5403184 312.01001
512137.97 5403182.5 311.95001
512137.91 5403181 312.10999
512137.84 5403179.5 312.13
512136.91 5403179.5 312.10001
512136.94 5403181 312.04001
512137 5403182.5 312.04999
512137.03 5403184 312
512137.09 5403185.5 311.91
512137.13 5403187 311.94
512137.16 5403188.5 311.82999
512137.22 5403190 311.85001
512137.25 5403191.5 311.84
512137.31 5403193 311.81
512137.34 5403194 311.82999
512137.38 5403195.5 311.82001
512137.44 5403197 311.88
512137.47 5403198.5 311.78
512137.5 5403200 311.67001
512137.56 5403201.5 311.78
512137.59 5403203 311.67999
512137.63 5403204.5 311.73999
512137.69 5403206 311.69
512137.72 5403207.5 311.57999
512137.78 5403209 311.69
512137.81 5403210.5 311.60999
512137.88 5403212 311.57001
512137.91 5403213.5 311.63
512137.94 5403215 311.53
512138.03 5403216 313.01999
512138.06 5403217.5 312.92999
512138.09 5403219.5 311.56
512138.13 5403221 311.63
512138.16 5403222.5 311.63
512138.22 5403224 311.64001
512138.53 5403224 327.06
512138.59 5403225.5 327.63
512138.63 5403227 328.26001
512138.66 5403228.5 327
512138.16 5403232.5 296.45999
512138.78 5403231.5 328.16
512138.81 5403232.5 328.78
512138.59 5403235.5 313.92999
512138.66 5403237 314.37
512138.72 5403238 316.20001
512138.69 5403240 312.14001
512138.81 5403241 315.48001
512139.06 5403241.5 327.07001
512139.09 5403243 327.67001
512139.16 5403244 328.70001
512139.22 5403245.5 328.76999
512139.25 5403247 329.45999
512139.31 5403248.5 329.95999
512139.34 5403250 328.94
512139.38 5403251.5 328.87
512139.41 5403253 328.88
512139.47 5403254.5 328.97
512139.5 5403256 328.98001
512139.56 5403257.5 329.06
512139.59 5403258.5 328.91
512139.63 5403260 328.85999
512139.69 5403261.5 328.92999
512139.72 5403263 328.98001
512139.75 5403264.5 328.89001
512139.81 5403265.5 328.95001
512139.81 5403266.5 328.89001
512139.84 5403267.5 328.97
512139.88 5403268 328.95001
512139.88 5403268.5 329.94
512139.91 5403269 330.03
512139.91 5403269.5 329.98001
512139.88 5403269.5 329.54001
512139.88 5403270 329.45001
512139.88 5403270 329.47
512139.88 5403270.5 329.34
512139.88 5403270.5 329.31
512139.88 5403270.5 329.34
512139.88 5403271 329.23001
512139.88 5403271 329.23999
512139.88 5403271 329.17999
512139.88 5403271 329.09
512139.88 5403271 329.10999
512139.84 5403271.5 329.01999
512139.84 5403271.5 329.01001
512139.84 5403271.5 329.01999
512139.84 5403271.5 328.95001
512139.84 5403271.5 328.98999
512139.81 5403271.5 328.89999
512139.81 5403271.5 329
512139.78 5403271.5 329.01001
512139.78 5403271 329.17001
512139.75 5403270.5 329.53
512139.72 5403269.5 329.98999
512139.66 5403269 328.92999
512139.63 5403267.5 328.91
512139.56 5403266.5 328.91
512139.53 5403265.5 328.95001
512139.47 5403264 328.87
512139.41 5403263 328.98001
512139.38 5403261.5 328.95999
512139.31 5403260 328.89999
512139.25 5403259 328.94
512139.19 5403257.5 328.98001
512139.16 5403256 329.35001
512139.09 5403255 328.98001
512139.03 5403253.5 328.94
512138.97 5403252 328.88
512138.91 5403251 328.94
512138.88 5403249.5 329.97
512138.81 5403248 329.48001
512138.75 5403247 328.89999
512138.69 5403245.5 328.69
512138.63 5403244 328.78
512138.56 5403243 327.14001
512138.31 5403242.5 315.66
512138.25 5403241 316.89001
512138.22 5403239.5 317.84
512138.13 5403238 316.60999
512138.03 5403236.5 314.48999
512137.94 5403235.5 311.94
512138.16 5403232.5 328.23999
512138.09 5403231.5 327.57999
512138.03 5403230 326.95999
512137.69 5403229.5 311.67001
512137.63 5403228 311.72
512137.88 5403225.5 327.04001
512137.53 5403225.5 311.73999
512137.47 5403224 311.64001
512137.41 5403222.5 311.57001
512137.34 5403221 311.53
512137.31 5403219.5 312.37
512137.25 5403218 312.42001
512137.19 5403216.5 313.01001
512137.09 5403215 311.67001
512137.03 5403213.5 311.62
512136.97 5403212 311.60999
512136.91 5403210.5 311.64999
512136.88 5403209 311.63
512136.81 5403207.5 311.66
512136.75 5403206 311.69
512136.69 5403204.5 311.66
512136.63 5403203 311.72
512136.56 5403201.5 311.69
512136.5 5403200 311.78
512136.44 5403198.5 311.89999
512136.38 5403197 311.81
512136.34 5403195.5 311.78
512136.28 5403194.5 311.84
512136.22 5403193 311.76001
512136.16 5403191.5 311.85999
512136.09 5403190 311.85999
512136.03 5403188.5 311.84
512135.97 5403187 311.91
512135.91 5403185.5 311.89001
512135.88 5403184 312.03
512135.81 5403182.5 311.98001
512135.75 5403181 312.07999
512135.69 5403179.5 312.10001
512134.78 5403179.5 312.16
512134.81 5403181 312.06
512134.84 5403182.5 312.06
512134.91 5403184 312.01001
512134.94 5403185.5 311.95001
512134.97 5403187 311.95001
512135.03 5403188.5 311.81
512135.06 5403190 311.87
512135.13 5403191.5 311.81
512135.16 5403193 311.82999
512135.19 5403194 311.82999
512135.25 5403195.5 311.76999
512135.28 5403197 311.76001
512135.31 5403198.5 311.73001
512135.38 5403200 311.84
512135.41 5403201.5 311.84
512135.47 5403203 311.69
512135.5 5403204.5 311.73999
512135.53 5403206 311.64999
512135.59 5403207.5 311.64999
512135.63 5403209 311.70001
512135.66 5403210.5 311.64001
512135.72 5403212 311.70999
512135.75 5403213.5 311.67001
512135.81 5403215 311.62
512135.84 5403216.5 311.67001
512135.88 5403218 311.60001
512135.94 5403219.5 311.54999
512135.97 5403221 311.59
512136.03 5403222 312.48999
512136.09 5403223.5 312.76001
512136.13 5403225 311.66
512136.16 5403226.5 311.70001
512136.19 5403228 311.73999
512136.25 5403229.5 311.70001
512136.28 5403231 311.76001
512136.34 5403232.5 311.82999
512136.38 5403234 311.82999
512136.41 5403235.5 311.98001
512136.47 5403237 312
512136.56 5403238 315.72
512136.56 5403240 312.81
512136.66 5403241 315.28
512136.72 5403242.5 317.19
512136.97 5403243 328.62
512137 5403244 328.70001
512137.06 5403245.5 328.73999
512137.09 5403247.5 327.54001
512137.13 5403248.5 328.09
512137.19 5403250 328.78
512137.25 5403251.5 329.34
512137.28 5403253 330.04001
512137.31 5403254.5 328.92999
512137.38 5403256 328.95001
512137.41 5403257.5 328.98001
512137.44 5403258.5 328.92001
512137.47 5403260 328.91
512137.53 5403261.5 328.92999
512137.56 5403263 328.85999
512137.63 5403264.5 328.92999
512137.63 5403265.5 328.89001
512137.69 5403266.5 329.64001
512137.72 5403267.5 329.79999
512137.72 5403268 329.70999
512137.72 5403268.5 328.95001
512137.72 5403269 328.92999
512137.72 5403269.5 328.92999
512137.72 5403269.5 328.97
512137.75 5403270 328.95999
512137.72 5403270 328.95999
512137.72 5403270.5 328.92001
512137.72 5403270.5 328.89001
512137.72 5403270.5 328.95001
512137.72 5403271 328.92001
512137.72 5403271 328.85999
512137.72 5403271 328.97
512137.72 5403271 328.85999
512137.72 5403271 328.98001
512137.69 5403271.5 328.95001
512137.69 5403271.5 328.95999
512137.69 5403271.5 328.92001
512137.69 5403271.5 328.89999
512137.69 5403271.5 328.95001
512137.66 5403271.5 328.92001
512137.66 5403271.5 328.95001
512137.63 5403271.5 328.92001
512137.63 5403271 328.91
512137.59 5403270.5 328.94
512137.56 5403269.5 328.94
512137.53 5403268.5 329.84
512137.5 5403267.5 329.76001
512137.44 5403266.5 329.69
512137.38 5403265.5 328.97
512137.31 5403264 328.88
512137.28 5403262.5 328.94
512137.22 5403261.5 328.91
512137.16 5403260 328.85999
512137.13 5403259 328.92999
512137.06 5403257.5 328.91
512137 5403256 328.91
512136.94 5403255 328.95001
512136.91 5403253.5 329.94
512136.84 5403252 329.29001
512136.78 5403251 328.70001
512136.72 5403249.5 328.29001
512136.66 5403248 327.54001
512136.59 5403247 326.95001
512136.56 5403245.5 328.70001
512136.5 5403244 328.64999
512136.19 5403244 313.89001
512136.13 5403242.5 314.53
512136.16 5403240.5 318.34
512136.06 5403239.5 316.23001
512135.91 5403238.5 312.01001
512135.88 5403237 311.92001
512135.81 5403235.5 312.79001
512135.75 5403234 312.75
512135.69 5403232.5 311.67999
512135.63 5403231 311.73999
512135.56 5403229.5 311.67001
512135.53 5403228 312.44
512135.44 5403226.5 311.62
512135.41 5403225 312.32999
512135.38 5403223.5 313.10001
512135.28 5403222 312.67999
512135.22 5403221 311.57001
512135.34 5403219 321.51999
512135.09 5403218 311.60999
512135.03 5403216.5 311.59
512134.97 5403215 311.64999
512134.91 5403213.5 311.54999
512134.84 5403212 311.64999
512134.78 5403210.5 311.64001
512134.75 5403209 311.69
512134.69 5403207.5 311.70001
512134.63 5403206 311.70001
512134.56 5403204.5 311.85999
512134.5 5403203 311.82001
512134.44 5403201.5 311.89001
512134.38 5403200 311.76001
512134.34 5403198.5 311.72
512134.28 5403197 311.76001
512134.22 5403195.5 311.73999
512134.16 5403194 311.75
512134.09 5403193 311.84
512134.03 5403191.5 311.81
512133.97 5403190 311.89999
512133.91 5403188.5 311.92001
512133.88 5403187 311.91
512133.81 5403185.5 312.03
512133.75 5403184 311.95001
512133.69 5403182.5 311.98999
512133.63 5403181 312.14001
512133.56 5403179.5 312.13
512132.66 5403179.5 312.17999
512132.69 5403181 312.04001
512132.75 5403182.5 312.06
512132.78 5403184 311.98001
512132.84 5403185.5 312.92001
512132.91 5403187 314.63
512132.91 5403188.5 312.76001
512132.94 5403190 311.92001
512133 5403191.5 311.82001
512133.03 5403193 311.75
512133.09 5403194 311.81
512133.13 5403195.5 311.73001
512133.16 5403197 311.76001
512133.22 5403198.5 311.76999
512133.25 5403200 311.70001
512133.28 5403201.5 311.75
512133.34 5403203 311.70999
512133.38 5403204.5 311.79999
512133.41 5403206 311.81
512133.47 5403207.5 311.72
512133.5 5403209 311.70999
512133.56 5403210.5 311.64999
512133.59 5403212 311.63
512133.63 5403213.5 311.67001
512133.69 5403215 311.63
512133.72 5403216.5 311.54999
512133.78 5403218 311.63
512133.81 5403219.5 311.60999
512133.88 5403221 311.67999
512133.91 5403222.5 311.57999
512133.94 5403224 311.60001
512134 5403225 312.38
512134.03 5403226.5 312.16
512134.06 5403228 311.81
512134.13 5403229.5 311.63
512134.16 5403231 311.57999
512134.19 5403232.5 311.70999
512134.25 5403234 312.66
512134.34 5403235.5 313.92999
512134.34 5403237 311.82001
512134.38 5403238.5 312.64999
512134.44 5403240 312.03
512134.47 5403241.5 311.98999
512134.5 5403243 311.98999
512134.59 5403244.5 314.01001
512134.63 5403246 312.76001
512134.66 5403247.5 312.81
512134.69 5403249 312.76999
512134.88 5403249.5 321.42001
512135.03 5403250 326.89999
512135.09 5403251.5 327.44
512135.13 5403253 328.20001
512135.19 5403254.5 328.73001
512135.22 5403256 329.23999
512135.28 5403257 330.01001
512135.31 5403258.5 328.92999
512135.34 5403260 328.87
512135.41 5403261.5 328.95999
512135.44 5403263 328.89999
512135.47 5403264.5 328.88
512135.5 5403265.5 329.07001
512135.56 5403266.5 329.72
512135.56 5403267.5 329.78
512135.59 5403268 329.78
512135.59 5403268.5 329.64001
512135.59 5403269 328.95999
512135.59 5403269.5 328.89001
512135.59 5403269.5 328.92001
512135.59 5403270 328.91
512135.59 5403270 328.85999
512135.59 5403270.5 328.95999
512135.59 5403270.5 328.88
512135.59 5403270.5 328.87
512135.59 5403270.5 328.94
512135.59 5403271 328.92001
512135.59 5403271 328.95001
512135.59 5403271 328.92999
512135.56 5403271 328.85999
512135.56 5403271.5 328.92999
512135.56 5403271.5 328.95999
512135.56 5403271.5 328.89001
512135.56 5403271.5 328.92001
512135.53 5403271.5 328.94
512135.53 5403271.5 328.98999
512135.5 5403271.5 328.95999
512135.47 5403271 328.89001
512135.47 5403270.5 328.95999
512135.41 5403269.5 328.91
512135.38 5403268.5 329.06
512135.34 5403267.5 329.78
512135.31 5403266.5 329.70999
512135.25 5403265.5 328.92999
512135.19 5403264 328.94
512135.13 5403262.5 328.94
512135.09 5403261.5 328.97
512135.03 5403260 328.89001
512134.97 5403258.5 328.95001
512134.94 5403257.5 329.95001
512134.88 5403256 329.14001
512134.81 5403255 328.56
512134.75 5403253.5 327.98999
512134.09 5403256.5 291.70999
512134.63 5403251 326.79001
512134.47 5403250.5 321.42001
512134.34 5403249.5 315.98999
512134.22 5403248.5 312.79999
512134.16 5403247 312.92001
512134.09 5403245.5 312.73999
512134.06 5403244 313.64999
512133.97 5403243 311.98999
512133.91 5403241.5 312.01001
512133.88 5403239.5 312.70001
512133.81 5403238.5 312.92001
512133.75 5403237 311.64999
512133.69 5403235.5 311.72
512133.63 5403234 311.69
512133.56 5403232.5 311.64001
512133.5 5403231 311.60001
512133.44 5403229.5 312.29999
512133.41 5403228 312.89999
512133.34 5403226.5 312.70999
512133.28 5403225 311.54001
512133.22 5403223.5 311.51001
512133.16 5403222.5 311.64999
512133.09 5403221 311.57001
512133.03 5403219.5 311.64999
512132.97 5403218 311.62
512132.91 5403216.5 311.60001
512132.88 5403215 311.66
512132.81 5403213.5 311.67001
512132.75 5403212 311.64999
512132.69 5403210.5 311.67999
