# .PCD v0.7 - Point Cloud Data file format
VERSION 0.7
FIELDS x y z
SIZE 4 4 4
TYPE F F F
COUNT 1 1 1
WIDTH 1564
HEIGHT 1
VIEWPOINT 0 0 0 1 0 0 0
POINTS 1564
DATA ascii
-0.73764998 -0.55602998 -1.3902
-0.71824998 -0.54299998 -1.3576
-0.95020998 -0.55839002 -1.4002
-0.87595999 -0.51617002 -1.2943
-0.85628998 -0.50979 -1.2783
-0.85413998 -0.51028001 -1.2795
-0.88271999 -0.52942002 -1.3275
-0.83679998 -0.52916998 -1.3269
-0.83045 -0.53477001 -1.3408999
-0.78384 -0.55409002 -1.3894
-0.77291 -0.54825002 -1.3747
-0.76857001 -0.55154997 -1.383
-0.75273001 -0.55730999 -1.3974
-0.93197 -0.54812998 -1.3784
-0.87967002 -0.55539 -1.3967
-0.81474 -0.52313 -1.3156
-0.77460998 -0.55028999 -1.3839
-0.77200001 -0.55489999 -1.3954999
-0.80144 -0.46946999 -1.1841
-0.79631001 -0.46803999 -1.1805
-0.83376002 -0.49373999 -1.2453001
-0.87190002 -0.51841003 -1.3075
-0.78889 -0.50307 -1.2688
-0.78609997 -0.55295998 -1.3946
-0.78328001 -0.55307001 -1.3949
-0.77731001 -0.55088001 -1.3894
-0.93778998 -0.54881001 -1.3882
-0.90200001 -0.53705001 -1.3585
-0.92619002 -0.55359 -1.4003
-0.83231002 -0.52231997 -1.3212
-0.83486998 -0.53363001 -1.3498
-0.77583998 -0.55058002 -1.3927
-0.76589 -0.54541999 -1.3796999
-0.67690998 -0.54724002 -1.3842
-0.84478998 -0.49434999 -1.2541
-0.92515999 -0.55155998 -1.3993
-0.87119001 -0.54579997 -1.3846
-0.83192003 -0.53037 -1.3455
-0.81494999 -0.48054001 -1.2225
-0.85874999 -0.50847 -1.2936
-0.88753998 -0.55283999 -1.4065
-0.81203997 -0.51427001 -1.3084
-0.78675002 -0.55362999 -1.4085
-0.87641001 -0.51055998 -1.3025
-0.79101998 -0.46675 -1.1908
-0.88306999 -0.52363002 -1.3358999
-0.82782 -0.51561999 -1.3155
-0.76673001 -0.48381001 -1.2343
-0.85942 -0.54558998 -1.3918999
-0.76475 -0.54487002 -1.3901
-0.95017999 -0.55254 -1.4139
-0.86748999 -0.51292998 -1.3125
-0.86071998 -0.53509998 -1.3693
-0.85794002 -0.54321998 -1.3901
-0.85057998 -0.49274001 -1.2648
-0.78737003 -0.4621 -1.1862
-0.84946001 -0.53432 -1.3715
-0.76415998 -0.54370999 -1.3956
-0.67967999 -0.54503 -1.399
-0.95229 -0.55089998 -1.4182
-0.85582 -0.49630001 -1.2776
-0.85658002 -0.50376999 -1.2969
-0.82731998 -0.51130003 -1.3162
-0.77165997 -0.48320001 -1.2438999
-0.86431998 -0.54451001 -1.4017
-0.77538002 -0.54842001 -1.4118
-0.76354998 -0.54407001 -1.4006
-0.72342998 -0.52696002 -1.3566
-0.89103001 -0.51567 -1.3312
-0.80097997 -0.46952 -1.2121
-0.85026002 -0.52445 -1.3539
-0.86382997 -0.54285997 -1.4014
-0.77652001 -0.55010003 -1.4201
-0.76927 -0.54696 -1.4119999
-0.76073998 -0.54284 -1.4014
-0.72127998 -0.52403998 -1.3528
-0.94808 -0.54563999 -1.4129
-0.79696 -0.45943001 -1.1897
-0.93035001 -0.54491001 -1.411
-0.88554001 -0.54316998 -1.4065
-0.85636002 -0.53465998 -1.3845
-0.77082002 -0.54883999 -1.4212
-0.76229 -0.54471999 -1.4105
-0.67653 -0.53825003 -1.3938
-0.91362 -0.52601999 -1.3665
-0.82072997 -0.47863999 -1.2434
-0.81985003 -0.50261003 -1.3056
-0.77609003 -0.48221001 -1.2527
-0.75836998 -0.54470003 -1.415
-0.72529 -0.52210999 -1.3563
-0.67377001 -0.53444999 -1.3882999
-0.80022001 -0.46039999 -1.1998
-0.83280998 -0.50931001 -1.3272001
-0.72529 -0.52068001 -1.3568
-0.67888999 -0.53727001 -1.4001
-0.68475997 -0.54455 -1.419
-0.94147998 -0.53925002 -1.4097
-0.86697 -0.50318998 -1.3154
-0.88404 -0.53777999 -1.4058
-0.86177999 -0.53368002 -1.3951
-0.68799001 -0.54101002 -1.4143
-0.87620997 -0.50204003 -1.3161
-0.77968001 -0.4508 -1.1817
-0.88703001 -0.51555002 -1.3515
-0.82183999 -0.49987999 -1.3104
-0.78052002 -0.48120001 -1.2614
-0.73668998 -0.52433997 -1.3745
-0.68997002 -0.54132998 -1.4191
-0.94904 -0.54293001 -1.4272
-0.87200999 -0.50550002 -1.3288
-0.83280998 -0.50546998 -1.3286999
-0.73755997 -0.52372998 -1.3767
-0.69115001 -0.54101002 -1.4220999
-0.87149 -0.49675 -1.3099
-0.78267998 -0.44868001 -1.1831
-0.93002999 -0.53808999 -1.4189
-0.88804001 -0.53618002 -1.4138
-0.87506998 -0.53799999 -1.4186
-0.72508001 -0.51104999 -1.3476
-0.69713002 -0.54210001 -1.4294
-0.95270997 -0.54203999 -1.4339
-0.87190002 -0.49733999 -1.3156
-0.79414999 -0.45405999 -1.2011
-0.79325998 -0.45673001 -1.2082
-0.88113999 -0.50984001 -1.3487
-0.82832003 -0.49991 -1.3225
-0.79036999 -0.48355001 -1.2792
-0.74814999 -0.52648002 -1.3927
-0.68839997 -0.53343999 -1.4111
0.53012002 -0.55067998 -1.4567
-0.93409002 -0.53184003 -1.4111
-0.79883999 -0.45559001 -1.2088
-0.77811998 -0.44518 -1.1811
-0.76942998 -0.44167 -1.1718
-0.84859002 -0.48949999 -1.2987
-0.92522001 -0.53621 -1.4227
-0.84676999 -0.50994003 -1.353
-0.74814999 -0.52512997 -1.3933001
-0.68918997 -0.53271002 -1.4134001
-0.82539999 -0.46809 -1.2456
-0.77539003 -0.44092 -1.1733
-0.89714998 -0.51656002 -1.3745
-0.89054 -0.53346002 -1.4195
-0.87803 -0.53557003 -1.4251
-0.74394 -0.51863003 -1.3801
-0.6832 -0.52420002 -1.3949
-0.95028001 -0.53839999 -1.4368
-0.86865002 -0.49340001 -1.3167
-0.78644001 -0.44769999 -1.1948
-0.78454 -0.44973999 -1.2002
-0.8696 -0.50098997 -1.337
-0.92897999 -0.53759003 -1.4347
-0.83280998 -0.49880999 -1.3312
-0.80612999 -0.48960999 -1.3066
-0.76098001 -0.52961999 -1.4134001
-0.67961001 -0.51997 -1.3877
-0.91763002 -0.52021003 -1.3924
-0.82735997 -0.47510999 -1.2717
-0.92743999 -0.53530997 -1.4328001
-0.84676999 -0.50603002 -1.3544
-0.76279002 -0.46155 -1.2354
-0.75093001 -0.52102 -1.3945
-0.68360001 -0.52183998 -1.3967
0.44929001 -0.54014999 -1.4457
-0.85197997 -0.48124999 -1.2921
-0.78040999 -0.44497001 -1.1947
-0.89174002 -0.51120001 -1.3724999
-0.87803 -0.53136998 -1.4267
-0.76117003 -0.52484 -1.4092
-0.85189998 -0.48155999 -1.2970999
-0.86838001 -0.49801001 -1.3414
-0.83728999 -0.4975 -1.34
-0.80366999 -0.48414001 -1.304
-0.76994002 -0.52963001 -1.4266
0.72794002 -0.54479998 -1.4674
-0.92151999 -0.51998001 -1.4049
-0.83447999 -0.47699001 -1.2888
-0.92449999 -0.53109998 -1.4349999
-0.85723001 -0.50817001 -1.373
-0.76378 -0.45835 -1.2384
-0.76687002 -0.52600002 -1.4212
-0.85086 -0.47832999 -1.2964
-0.88327003 -0.50389999 -1.3657
-0.90553999 -0.53390002 -1.4471
-0.77147001 -0.52570999 -1.4248
-0.94905001 -0.53279001 -1.4485
-0.84091997 -0.47307 -1.2861
-0.78196001 -0.44100001 -1.1989
-0.87023002 -0.49678999 -1.3506
-0.92565 -0.53079998 -1.4431
-0.83929002 -0.49465001 -1.3448
-0.80760998 -0.4826 -1.312
-0.78202999 -0.53173 -1.4456
0.44479999 -0.52635998 -1.431
-0.83367002 -0.46768001 -1.2753
-0.83437997 -0.47476 -1.2946
-0.92514002 -0.52907997 -1.4428
-0.87418002 -0.51420999 -1.4022
-0.77116001 -0.45914 -1.252
-0.77675003 -0.52658999 -1.436
-0.68348002 -0.50885999 -1.3875999
-0.95008999 -0.53043002 -1.4512
-0.90350997 -0.51321 -1.4040999
-0.77043998 -0.45243001 -1.2378
-0.78094 -0.52591002 -1.4388
0.44391 -0.52024001 -1.4233
0.73095 -0.53915 -1.475
-0.86631 -0.48342001 -1.3269
-0.78163999 -0.44174001 -1.2125
-0.87715 -0.49836001 -1.3679
-0.84676999 -0.49491999 -1.3585
-0.81992 -0.48598 -1.334
-0.71042001 -0.52692997 -1.4464
0.11112 -0.53706998 -1.4742
0.44940999 -0.52350003 -1.437
-0.94505 -0.52653003 -1.4496
-0.84345001 -0.47767001 -1.3151
-0.89112997 -0.51994997 -1.4315
-0.78889 -0.46597001 -1.2829
-0.78711998 -0.52727997 -1.4517
-0.71201998 -0.52678001 -1.4503
0.44758001 -0.52052999 -1.4331
-0.95321 -0.52784997 -1.4576
-0.80102998 -0.44418001 -1.2265
-0.77652001 -0.43649 -1.2053
-0.91442001 -0.51710999 -1.4279
-0.79222 -0.52732003 -1.4561
-0.71930999 -0.52877998 -1.4601001
-0.59328997 -0.52819997 -1.4585
0.45367 -0.52200001 -1.4414001
-0.95074999 -0.52686 -1.4595
-0.80106997 -0.44451001 -1.2314
-0.78372002 -0.44091001 -1.2214
-0.86773002 -0.49070999 -1.3593
-0.85922998 -0.49829 -1.3803
-0.82977003 -0.48796999 -1.3518
-0.70801002 -0.51858997 -1.4366
-0.80624002 -0.44613001 -1.2399
-0.85551 -0.48231 -1.3404
-0.92229998 -0.52243 -1.4519
-0.90658998 -0.52473998 -1.4584
-0.80760998 -0.47330999 -1.3154
-0.70841002 -0.51740003 -1.438
0.45809001 -0.52280998 -1.4529999
-0.94764 -0.52213001 -1.4557
-0.82845002 -0.45730001 -1.275
-0.89877999 -0.50564998 -1.4098001
-0.91354001 -0.52541 -1.4649
-0.78345001 -0.45096999 -1.2573
-0.76138997 -0.44277999 -1.2345001
-0.72043997 -0.47380999 -1.321
-0.71447998 -0.51836002 -1.4452
-0.9235 -0.50905001 -1.4238
-0.83818001 -0.46307999 -1.2952
-0.88474 -0.49801999 -1.3929
-0.87817001 -0.50515002 -1.4129
-0.84257001 -0.49144 -1.3746001
-0.72974998 -0.47881001 -1.3392
-0.69787002 -0.50427997 -1.4105
-0.95036 -0.52263999 -1.4662
-0.92676997 -0.51134002 -1.4345
-0.78261 -0.43230999 -1.2128
-0.85326999 -0.47874999 -1.3431
-0.92390001 -0.52089 -1.4613
-0.91257 -0.52388 -1.4697
-0.83025998 -0.48282 -1.3545001
-0.72886002 -0.47692001 -1.3380001
-0.70191997 -0.50599998 -1.4195
0.46682 -0.52345002 -1.4685
-0.93485999 -0.51264 -1.4425
-0.83302999 -0.45773 -1.288
-0.78312999 -0.43144 -1.214
-0.87103999 -0.48756999 -1.372
-0.93251002 -0.52441001 -1.4756
-0.82432997 -0.4711 -1.3256
-0.71907997 -0.46718001 -1.3146
-0.69169003 -0.49480999 -1.3923
-0.94828999 -0.51859999 -1.464
-0.89122999 -0.48875999 -1.3798
-0.83807999 -0.46086001 -1.301
-0.80519003 -0.44408 -1.2537
-0.77866 -0.43380001 -1.2247
-0.87481999 -0.49006999 -1.3835
-0.89561999 -0.51112998 -1.443
-0.85536999 -0.49496999 -1.3973
-0.74487001 -0.48317999 -1.3641
-0.68518001 -0.4885 -1.3791
0.44389999 -0.50132 -1.4152
-0.92641002 -0.50863999 -1.4407001
-0.89993 -0.49568 -1.404
-0.85203999 -0.47571 -1.3474
-0.78038001 -0.44452 -1.2591
-0.85587001 -0.49380001 -1.3987
-0.74397999 -0.48117 -1.3629
-0.6925 -0.49254999 -1.3951
0.403 -0.51740998 -1.4655
-0.98466003 -0.51877999 -1.4739
-0.93089002 -0.50791001 -1.443
-0.91272998 -0.50146002 -1.4247
-0.88138998 -0.49103001 -1.395
-0.86272001 -0.48925 -1.39
-0.78806001 -0.45102999 -1.2814
-0.89871001 -0.5176 -1.4706
-0.72841001 -0.46759999 -1.3285
-0.68544 -0.48389 -1.3748
-0.94788998 -0.51590002 -1.4701999
-0.92281997 -0.50388998 -1.436
-0.92040998 -0.50436997 -1.4373
-0.85213 -0.46812001 -1.334
-0.77359998 -0.42886999 -1.2222
-0.87805003 -0.48958001 -1.3952
-0.91106999 -0.51577002 -1.4698
-0.77789003 -0.44067001 -1.2558
-0.75743997 -0.43195999 -1.2309999
-0.88935 -0.51072001 -1.4554
-0.76589 -0.49122 -1.3999
-0.68217999 -0.48016 -1.3683
0.44738001 -0.49774 -1.4184999
0.47885001 -0.52139002 -1.4858
-0.95046002 -0.51586002 -1.4747
-0.92808998 -0.5072 -1.45
-0.92821002 -0.50910002 -1.4554
-0.84122002 -0.46739 -1.3362
-0.91948003 -0.51346999 -1.4679
-0.78732997 -0.44487 -1.2718
-0.88688999 -0.50784999 -1.4518
-0.76811999 -0.49132001 -1.4046
0.44664001 -0.49573001 -1.4172
-0.93730998 -0.51084 -1.4651
-0.89042997 -0.48669001 -1.3958
-0.91640002 -0.50840002 -1.4581
-0.88564998 -0.49829 -1.4291
-0.85771 -0.48762 -1.3985
-0.75613999 -0.48010999 -1.3769
0.44490999 -0.49064001 -1.4071
-0.94119 -0.50779003 -1.4612
-0.92399001 -0.50198001 -1.4445
-0.85601997 -0.46788999 -1.3464
-0.87873 -0.48750001 -1.4028
-0.91655999 -0.51444 -1.4804
-0.81119001 -0.45594999 -1.3121001
-0.76138997 -0.43051001 -1.2388
-0.89674002 -0.51059997 -1.4693
-0.78479999 -0.49746001 -1.4315
-0.67663002 -0.46603 -1.3411
0.40981999 -0.51389003 -1.4788001
0.47027001 -0.50988001 -1.4673001
-0.93747002 -0.51155001 -1.4771
-0.82441002 -0.45547 -1.3152
-0.81616002 -0.45741001 -1.3207
-0.89625001 -0.50876999 -1.469
-0.76867998 -0.48541 -1.4016
0.46132001 -0.50105 -1.4468
-0.94651997 -0.51141 -1.4813
-0.89877999 -0.48877999 -1.4157
-0.87923998 -0.48495001 -1.4046
-0.91307002 -0.50948 -1.4757
-0.89278001 -0.50348997 -1.4583
-0.7845 -0.49243 -1.4263
-0.73939002 -0.51280999 -1.4852999
0.41433001 -0.51245999 -1.4843
0.46786001 -0.50266999 -1.4559
-0.85530001 -0.46517 -1.3515
-0.87187999 -0.48124 -1.3982
-0.81715 -0.45545 -1.3233
-0.75996 -0.42447999 -1.2333
-0.78706998 -0.44154999 -1.2829
-0.80202001 -0.50240999 -1.4597
-0.72422999 -0.50041002 -1.4539
0.40287 -0.50063002 -1.4545
-0.88712001 -0.47620001 -1.388
-0.93295997 -0.50660998 -1.4766999
-0.83376002 -0.45852 -1.3365
-0.83256 -0.46285999 -1.3491
-0.75897002 -0.42269 -1.232
-0.76385999 -0.42701 -1.2447
-0.79978001 -0.49952 -1.456
-0.72668999 -0.50073999 -1.4596
0.40994999 -0.50560999 -1.4737
0.46935999 -0.50103998 -1.4604
-0.95973003 -0.51051998 -1.4929
-0.90227002 -0.4813 -1.4075
-0.89993 -0.48176 -1.4088
-0.90301001 -0.48868999 -1.4291
-0.87989998 -0.48293999 -1.4123
-0.91754001 -0.50580001 -1.4791
-0.88963997 -0.49195001 -1.4385999
-0.90167999 -0.50426 -1.4746
-0.79500002 -0.49304 -1.4418
-0.71845001 -0.44574001 -1.3035001
-0.73777002 -0.50511998 -1.4771
0.48835999 -0.51244998 -1.4986
-0.93052 -0.49511999 -1.4526
-0.88148999 -0.47036999 -1.38
-0.85203999 -0.461 -1.3525
-0.85453999 -0.46911001 -1.3763
-0.8682 -0.47849 -1.4038
-0.78038001 -0.43077001 -1.2638
-0.81770003 -0.4551 -1.3352
-0.81168002 -0.50225002 -1.4736
-0.72069001 -0.44588 -1.3081
-0.71020001 -0.48394001 -1.4198
0.40092999 -0.48965001 -1.4366
-0.93453002 -0.50487 -1.4861
-0.79404002 -0.43403 -1.2776
-0.82981998 -0.45561001 -1.3411
-0.78038001 -0.42951 -1.2643
-0.76187998 -0.42216 -1.2426
-0.81348997 -0.50193 -1.4773999
-0.71845001 -0.44312999 -1.3044
-0.71513999 -0.48604 -1.4306999
0.40092999 -0.48820999 -1.4371001
0.48497 -0.50677001 -1.4917001
-0.9526 -0.50402999 -1.4886
-0.93832999 -0.49816999 -1.4713
-0.91226 -0.4912 -1.4506
-0.78843999 -0.43118 -1.2733999
-0.89179999 -0.49425 -1.4597
-0.69107997 -0.46555999 -1.3749
-0.94139999 -0.49833 -1.4766001
-0.93229002 -0.49522999 -1.4675
-0.85281998 -0.45897999 -1.3601
-0.78411001 -0.43215999 -1.2806
-0.90658998 -0.50295001 -1.4903001
-0.68488997 -0.4598 -1.3625
0.44585001 -0.47294 -1.4014
-0.94448 -0.49849999 -1.482
-0.92207998 -0.48828 -1.4516
-0.92597997 -0.49753001 -1.4792
-0.75694001 -0.41563001 -1.2357
-0.90511 -0.50062001 -1.4884
-0.68324 -0.45727 -1.3595001
0.49465001 -0.50753999 -1.5089
-0.91324002 -0.48036 -1.4329
-0.91084999 -0.48080999 -1.4342
-0.8836 -0.47299999 -1.4109
-0.85574001 -0.46967 -1.401
-0.82888001 -0.50169998 -1.4965
-0.68216997 -0.45326999 -1.3521
-0.21610001 -0.50546002 -1.5077
0.44477999 -0.46719 -1.3936
-0.93167001 -0.48873001 -1.4627
-0.89399999 -0.47038999 -1.4078
-0.85459 -0.45750999 -1.3692
-0.77306998 -0.41461 -1.2408
-0.77077001 -0.42087001 -1.2596
-0.89674002 -0.49296001 -1.4753
-0.72772998 -0.43899 -1.3138
-0.73078001 -0.48982 -1.4658999
0.40228999 -0.48218 -1.4431
0.46669999 -0.48280999 -1.4450001
0.87084001 -0.50670999 -1.5165
-0.94147998 -0.49439001 -1.4841
-0.94663 -0.49893999 -1.4977
-0.91697001 -0.49015 -1.4713
-0.78711998 -0.42115 -1.2642
-0.76903999 -0.41277 -1.239
-0.89525998 -0.49081001 -1.4733
-0.72637999 -0.43697 -1.3117
-0.72048998 -0.4813 -1.4448
0.41488999 -0.49188 -1.4765
0.45686999 -0.47389999 -1.4226
0.49983999 -0.50489002 -1.5156
-0.94959998 -0.49529001 -1.4922
-0.94404 -0.49412999 -1.4887
-0.85358 -0.45423999 -1.3685
-0.77758998 -0.41459 -1.249
-0.79942 -0.43425 -1.3083
-0.83594 -0.49961999 -1.5052
-0.72218001 -0.43125999 -1.2993
-0.69088 -0.45524999 -1.3715
-0.74888003 -0.49954 -1.505
0.40606999 -0.48021999 -1.4468
0.46493 -0.47641999 -1.4353
-0.95679998 -0.49941 -1.5096
-0.95173001 -0.49853 -1.5069
-0.87840003 -0.46798 -1.4146
-0.78254002 -0.41754001 -1.2621
-0.76238 -0.41248 -1.2467999
-0.86276001 -0.46970001 -1.4198
-0.75849998 -0.45236999 -1.3674001
-0.72123998 -0.47681999 -1.4413
-0.72213 -0.47944999 -1.4492
0.49755999 -0.5 -1.5113
-0.91609001 -0.47830999 -1.4500999
-0.912 -0.48486999 -1.47
-0.79303998 -0.42210001 -1.2797
-0.75792998 -0.40891001 -1.2397
-0.84552002 -0.45888999 -1.3913
-0.75760001 -0.45058 -1.3661
-0.69419998 -0.45493999 -1.3793
-0.69563001 -0.45784 -1.3881
-0.69578999 -0.45987999 -1.3943
0.40606999 -0.47749001 -1.4477
0.47214001 -0.47922 -1.4529001
-0.88685 -0.45962 -1.3987
-0.88453001 -0.46004999 -1.4
-0.85833001 -0.45434999 -1.3825999
-0.75648999 -0.40529001 -1.2333
-0.76978999 -0.41406 -1.26
-0.72250003 -0.42592999 -1.2961
-0.75559998 -0.49340999 -1.5015
-0.75309002 -0.49377 -1.5026
-0.70223999 -0.46086001 -1.4024
-0.69990999 -0.46118999 -1.4033999
0.48714 -0.48684001 -1.4815
-1.0342 -0.49680001 -1.5168999
-0.92412001 -0.47773999 -1.4588
-0.87739998 -0.45489001 -1.3890001
-0.94108999 -0.49737999 -1.5187
-0.83304 -0.44097 -1.3465
-0.83765 -0.45162001 -1.3789999
-0.76532 -0.45065999 -1.3760999
-0.73686999 -0.47916001 -1.4631
-0.75641 -0.49452001 -1.51
-0.72702998 -0.47645 -1.4548
-0.70361 -0.46232 -1.4117
0.43239999 -0.49696001 -1.5174
-0.93798 -0.48541 -1.4868
-0.94514 -0.49094999 -1.5037
-0.88903999 -0.46983999 -1.4391
-0.76238 -0.40759 -1.2484
-0.79725999 -0.42820999 -1.3116
-0.76624 -0.44995999 -1.3782001
-0.73769999 -0.47839001 -1.4651999
-0.75972003 -0.49540001 -1.5173
-0.74562001 -0.48784 -1.4942
-0.72213 -0.47376999 -1.4511
-0.74882001 -0.49419999 -1.5137
0.43377 -0.49674001 -1.5215
0.49133 -0.48715001 -1.4921
-0.92922997 -0.47746 -1.4679
-0.92677999 -0.47791001 -1.4693
-0.78053999 -0.41012999 -1.2609
-0.76880002 -0.40970999 -1.2596
-0.74246001 -0.43239999 -1.3293999
-0.74725002 -0.48120001 -1.4794
-0.70389003 -0.45774001 -1.4073
-0.70156002 -0.45807001 -1.4083
-0.75128001 -0.49423 -1.5194
0.43288001 -0.49186999 -1.5122
-0.94562 -0.48627001 -1.5001
-0.94310999 -0.48672 -1.5015
-0.93405002 -0.49085 -1.5142
-0.79092997 -0.41591999 -1.283
-0.80563998 -0.43002 -1.3265001
-0.79092002 -0.46013999 -1.4195
-0.71089 -0.45535001 -1.4047
-0.74520999 -0.48442 -1.4944
-0.71555001 -0.46621999 -1.4382
-0.74431002 -0.48793 -1.5052
0.40470001 -0.46661001 -1.4394
0.44637001 -0.45037001 -1.3893
-0.95427001 -0.48936999 -1.5144
-0.90047997 -0.46307001 -1.433
-0.80787998 -0.42379001 -1.3115
-0.76230001 -0.40524 -1.2541
-0.90948999 -0.48703 -1.5072
-0.80189002 -0.46539 -1.4402
-0.71004999 -0.45348999 -1.4033999
-0.72953999 -0.47441 -1.4681
-0.73201001 -0.47812 -1.4796
0.42050999 -0.47856 -1.4809999
0.4456 -0.44850999 -1.388
-0.93855 -0.4901 -1.5226001
-0.81746 -0.43367001 -1.3473001
-0.78179997 -0.45001999 -1.3981
-0.70188999 -0.44459999 -1.3813
-0.75843 -0.49024999 -1.5231
-0.73488998 -0.47637001 -1.4799
-0.74882001 -0.48789001 -1.5157
0.41124001 -0.46680999 -1.4503
0.44484001 -0.44437 -1.3805
-0.93798 -0.47771001 -1.4892
-0.94870001 -0.48677 -1.5175
-0.84377003 -0.44003999 -1.3717999
-0.84469002 -0.44867 -1.3987
-0.90893 -0.48528999 -1.5129
-0.82766998 -0.47576001 -1.4832
-0.68972999 -0.43518001 -1.3566999
-0.73983002 -0.47821999 -1.4908
-0.72504997 -0.4702 -1.4658999
0.47391999 -0.46443 -1.4479001
-0.91824001 -0.46788999 -1.4632
-0.92896003 -0.47516 -1.4859
-0.87817001 -0.45702001 -1.4292001
-0.78921002 -0.41742 -1.3053
-0.90991002 -0.48446 -1.515
-0.83226001 -0.47713 -1.4921
-0.69265997 -0.43588999 -1.3631001
-0.73159999 -0.47132999 -1.4739
-0.69717002 -0.44999 -1.4072
0.4102 -0.46318999 -1.4485
0.46281999 -0.45497 -1.4227
-0.95630997 -0.48435 -1.5197001
-0.92483997 -0.46989 -1.4743
-0.93755001 -0.48521 -1.5224
-0.85500002 -0.45162001 -1.4170001
-0.91479999 -0.48565 -1.5238
-0.83244002 -0.47396001 -1.4871
-0.68353999 -0.42682999 -1.3392
-0.72254002 -0.46382001 -1.4553
-0.72013003 -0.46415001 -1.4563
0.46518001 -0.4533 -1.4223
-0.95630997 -0.48451 -1.5257
-0.94262999 -0.47922 -1.5089999
-0.83530003 -0.43158999 -1.359
-0.75397998 -0.39300999 -1.2376
-0.76122999 -0.39976999 -1.2588
-0.85900998 -0.45396999 -1.4295
-0.91372001 -0.48528001 -1.5281
-0.84855002 -0.48181 -1.5172
-0.68144 -0.42405 -1.3353
-0.77193999 -0.48508 -1.5275
-0.73159999 -0.46836999 -1.4749
-0.75119001 -0.48561001 -1.5292
0.44299999 -0.48727 -1.5344
0.44330999 -0.43785 -1.3788
-0.95934999 -0.48469999 -1.5311
-0.94059998 -0.47683001 -1.5062
-0.86870003 -0.4479 -1.4148
-0.82230002 -0.43294001 -1.3676
-0.85223001 -0.48258999 -1.5244
-0.77193999 -0.48370999 -1.5279
-0.74476999 -0.47584 -1.5031
-0.69225001 -0.44260001 -1.3981
-0.75364 -0.48589 -1.5348001
0.44542 -0.48787001 -1.5411
0.48785001 -0.46697 -1.4751
-0.93347001 -0.46992999 -1.4895999
-0.93098998 -0.47036999 -1.4910001
-0.93203998 -0.47784999 -1.5147001
-0.90306002 -0.47485 -1.5052
-0.85477 -0.48065001 -1.5236
-0.77912003 -0.48480999 -1.5368
-0.76380002 -0.48493999 -1.5372
0.44383001 -0.48264 -1.5299
0.51076001 -0.47988001 -1.5211999
-0.94564998 -0.47452 -1.5099
-0.86925 -0.43720999 -1.3911999
-0.93961 -0.47488999 -1.511
-0.82981998 -0.42466 -1.3512
-0.74953002 -0.38696 -1.2313
-0.78217 -0.40864 -1.3002
-0.90640002 -0.47678 -1.5171
-0.86124003 -0.48273 -1.536
-0.72889 -0.40806001 -1.2984
-0.75217998 -0.46574 -1.4819
-0.72377998 -0.45875999 -1.4597
-0.70946997 -0.45116001 -1.4355
0.40843999 -0.45231 -1.4392
-0.91377997 -0.45868 -1.464
-0.91942 -0.46324 -1.4785
-0.84676999 -0.43228999 -1.3796999
-0.89810997 -0.47101 -1.5033
-0.72981 -0.40744999 -1.3005
-0.75133002 -0.4639 -1.4806
-0.73159999 -0.46265 -1.4766999
-0.69553 -0.44062001 -1.4062999
0.42682999 -0.4659 -1.487
0.50651002 -0.47387001 -1.5124
-0.89758998 -0.44898 -1.4381
-0.90803999 -0.46094999 -1.4765
-0.76064003 -0.39475 -1.2644
-0.86565 -0.48047999 -1.539
-0.71947002 -0.39866999 -1.277
-0.77450001 -0.47530001 -1.5224
-0.74562001 -0.46843001 -1.5003999
-0.73777002 -0.46524 -1.4902
0.41431001 -0.45212001 -1.4481
-0.95473999 -0.47817999 -1.5372
-0.80239999 -0.40656 -1.3069
-0.83322001 -0.43346 -1.3934
-0.74625999 -0.41264001 -1.3265001
-0.73266 -0.44707999 -1.4372
-0.76049 -0.47663 -1.5322
-0.75251001 -0.47542 -1.5283
0.40386 -0.44227999 -1.4218
0.44940001 -0.43022999 -1.383
-1.0312001 -0.48293999 -1.5582
-0.81485999 -0.41161999 -1.3281
-0.76638001 -0.39662001 -1.2796
-0.74717999 -0.41179001 -1.3286
-0.73180997 -0.44506001 -1.4359
-0.75718999 -0.47288999 -1.5257
-0.75128001 -0.47303 -1.5262001
0.41571 -0.45023999 -1.4527
0.44632 -0.42660999 -1.3764
0.52723998 -0.48174 -1.5543
-0.92694002 -0.45928001 -1.4873
-0.92447001 -0.45969999 -1.4886
-0.90003997 -0.45229 -1.4646
-0.77135998 -0.39072999 -1.2653
-0.89713001 -0.46430999 -1.5036
-0.72249001 -0.39491001 -1.2788
-0.74054998 -0.44725001 -1.4483
-0.75931001 -0.47069001 -1.5242
-0.73528999 -0.45706001 -1.4801
0.45684001 -0.48135999 -1.5588
0.44780999 -0.42436001 -1.3742
-0.93355 -0.46276 -1.5039999
-0.94354999 -0.47295001 -1.5371
-0.79690999 -0.39971 -1.2991
-0.76441997 -0.38587001 -1.2541
-0.77868003 -0.39465001 -1.2826
-0.77067 -0.39193001 -1.2738
-0.78297001 -0.40270999 -1.3088
-0.90289998 -0.46755999 -1.5196
-0.87287003 -0.47635001 -1.5481
-0.78364998 -0.42800999 -1.391
-0.70704001 -0.42473 -1.3803999
-0.76138002 -0.47048 -1.5290999
-0.70554 -0.43627 -1.4179
-0.70485002 -0.43765 -1.4224
-0.76112002 -0.47632 -1.5481
0.45265001 -0.47646999 -1.5484999
0.49623999 -0.45684999 -1.4848
-0.97046 -0.47799999 -1.5591
-0.93052 -0.45971999 -1.4995
-0.80328 -0.39732 -1.296
-0.95863998 -0.47729999 -1.5568
-0.95305002 -0.47622001 -1.5533
-0.79841 -0.39916 -1.302
-0.75897002 -0.3818 -1.2453001
-0.90338999 -0.46628001 -1.5209
-0.78781998 -0.42894 -1.3990999
-0.71000999 -0.42519 -1.3868999
-0.73152 -0.44973001 -1.4669
-0.68571001 -0.42201999 -1.3765
-0.72296 -0.44797 -1.4612
0.4544 -0.47628 -1.5535001
0.47222 -0.43858999 -1.4306
-0.96741998 -0.47490999 -1.5546
-0.9497 -0.46777999 -1.5312999
-0.94714999 -0.46822 -1.5326999
-0.95161998 -0.47218999 -1.5457
-0.81753999 -0.40608001 -1.3293
-0.83371001 -0.42658001 -1.3965
-0.76082999 -0.41088 -1.345
-0.70249999 -0.4174 -1.3664
-0.77565998 -0.47253999 -1.5469
-0.67941999 -0.41312 -1.3523999
-0.76420999 -0.47117999 -1.5424
0.46048 -0.47716001 -1.562
0.46641001 -0.4312 -1.4116
-0.95978999 -0.47126001 -1.5483
-0.90389001 -0.44501999 -1.4621
-0.94259 -0.46608999 -1.5312999
-0.91854 -0.45567 -1.4971
-0.78145999 -0.38793999 -1.2746
-0.76788998 -0.38383001 -1.2611001
-0.80040997 -0.40189001 -1.3204
-0.86593997 -0.44361001 -1.4575
-0.82033998 -0.44251001 -1.4539
-0.68632001 -0.40599999 -1.3339
-0.77608001 -0.47124001 -1.5482
-0.76833999 -0.47227001 -1.5516
0.41740999 -0.44203001 -1.4523
0.52244002 -0.4684 -1.5389
-0.94011003 -0.46169001 -1.5221
-0.93505001 -0.46254 -1.5249
-0.78744 -0.38973999 -1.2849
-0.75204998 -0.37322 -1.2304
-0.76244003 -0.37985 -1.2523
-0.80140001 -0.40112999 -1.3224
-0.85038 -0.4341 -1.4311
-0.81987 -0.44086999 -1.4534
-0.68418998 -0.40342 -1.33
-0.73763001 -0.44549999 -1.4687001
-0.68690997 -0.41521001 -1.3688999
-0.72696 -0.44244999 -1.4586999
-0.76999003 -0.47183999 -1.5556
0.43562001 -0.45478001 -1.4993
0.49715 -0.44955 -1.4821
-0.89494997 -0.43941 -1.4535
-0.89253998 -0.43981001 -1.4549
-0.87392002 -0.43522999 -1.4397
-0.87154001 -0.43562001 -1.441
-0.75564998 -0.38211 -1.2640001
-0.81155002 -0.43325001 -1.4332
-0.68678999 -0.40213001 -1.3302
-0.76933998 -0.46601999 -1.5416
0.41523999 -0.4355 -1.4406
0.52695 -0.46650001 -1.5432
-0.96785998 -0.47071999 -1.5628999
-0.95670998 -0.46691999 -1.5503
-0.91153997 -0.44780001 -1.4868
-0.83873999 -0.41596001 -1.3811001
-0.91895998 -0.45820999 -1.5214
-0.80317003 -0.40088999 -1.3311
-0.84065002 -0.42624 -1.4152
-0.84653002 -0.45091 -1.4971
-0.77787 -0.45820001 -1.5214
-0.77309 -0.46678999 -1.5499001
0.40292999 -0.42456999 -1.4097
0.53789002 -0.47235 -1.5683
-0.94915998 -0.46154001 -1.5384001
-0.80304003 -0.39221999 -1.3073
-0.75599998 -0.37279999 -1.2426
-0.80435997 -0.39862001 -1.3286999
-0.81795001 -0.40698001 -1.3565
-0.78179997 -0.39434999 -1.3144
-0.87497997 -0.46482 -1.5493
-0.77787 -0.45658001 -1.5219001
-0.73786002 -0.43753001 -1.4584
-0.68343002 -0.40551001 -1.3516001
-0.72551 -0.43347001 -1.4448
-0.77767003 -0.46801001 -1.5599999
0.41946 -0.43571001 -1.4523
0.52499998 -0.46195 -1.5397
-0.93659002 -0.45385 -1.5181
-0.78762001 -0.38191 -1.2775
-0.78053999 -0.37977999 -1.2704
-0.92742997 -0.45767999 -1.5309
-0.92488998 -0.45809001 -1.5323
-0.86913002 -0.45835999 -1.5332
-0.79578 -0.46408001 -1.5523
-0.78595001 -0.46191999 -1.5451
-0.77572 -0.46138999 -1.5433
0.40242001 -0.41929001 -1.4025
0.44411999 -0.40586999 -1.3576
0.54443002 -0.47146001 -1.577
-0.96375 -0.46573001 -1.5633
-0.87036997 -0.42144999 -1.4147
-0.78204 -0.37931001 -1.2732
-0.81743997 -0.40116 -1.3466001
-0.91254002 -0.45043001 -1.5118999
-0.84749001 -0.41927001 -1.4073
-0.82459998 -0.41376999 -1.3889
-0.92365003 -0.46632999 -1.5653
-0.88643998 -0.46623999 -1.5650001
-0.72806001 -0.38227999 -1.2832
-0.74106997 -0.42956001 -1.4419
-0.78596002 -0.45855999 -1.5391999
-0.78084999 -0.45734999 -1.5351
-0.78495002 -0.46562001 -1.5628999
0.46272999 -0.46577999 -1.5635
0.45975 -0.41508999 -1.3933001
-0.85332 -0.41167 -1.3868999
-0.77104002 -0.37261 -1.2553
-0.75454003 -0.36579001 -1.2323
-0.75945997 -0.37088999 -1.2495
-0.88388997 -0.43456 -1.464
-0.89771998 -0.44312 -1.4929
-0.76915002 -0.38404 -1.2938
-0.92025 -0.46301001 -1.5599
-0.88457 -0.46366 -1.5621001
-0.72666001 -0.38023001 -1.281
-0.73593998 -0.42502999 -1.4319
-0.78596002 -0.45701 -1.5397
-0.73800999 -0.42978001 -1.4479001
-0.68659002 -0.40019 -1.3482
-0.73532999 -0.43171 -1.4543999
0.46379 -0.46500999 -1.5666
0.45583999 -0.41106999 -1.3849
-0.96928 -0.46526 -1.5733
-0.80517 -0.38668999 -1.3077
-0.74791002 -0.36917999 -1.2485
-0.86545002 -0.43177 -1.4601001
-0.71985 -0.37384999 -1.2642
-0.72799999 -0.41709 -1.4105
-0.74704999 -0.43022999 -1.4549
-0.68291003 -0.39333999 -1.3302
-0.67988998 -0.39311999 -1.3293999
-0.78675997 -0.45971 -1.5546
-0.79302001 -0.46544999 -1.574
0.45791 -0.45675999 -1.5446
0.45616001 -0.40807 -1.38
-0.90096003 -0.43206 -1.4665999
-0.82735002 -0.40197 -1.3644
-0.92588001 -0.45245999 -1.5358
-0.88788003 -0.43516001 -1.4771
-0.86497998 -0.43165001 -1.4651999
-0.76244003 -0.39528999 -1.3417
-0.69712001 -0.39728001 -1.3485
-0.71585 -0.41010001 -1.392
-0.68673998 -0.39429 -1.3384
-0.68456 -0.39458001 -1.3394001
-0.77999997 -0.45403999 -1.5412
0.41832 -0.42557999 -1.4446
0.52205998 -0.45034 -1.5286
-0.76046002 -0.36757001 -1.2523
-0.93760997 -0.45842001 -1.5619
-0.83783001 -0.41637999 -1.4186
-0.89186001 -0.46099001 -1.5706
-0.7615 -0.39342999 -1.3405
-0.6864 -0.38956001 -1.3272001
-0.70731002 -0.40360001 -1.3751
-0.70504999 -0.40389001 -1.3760999
-0.72443002 -0.4172 -1.4214
-0.78634 -0.45629999 -1.5547
0.43917999 -0.43966001 -1.498
0.49382001 -0.43013999 -1.4655
-0.92755002 -0.44203001 -1.5114
-0.81006998 -0.39364001 -1.3459001
-0.75212997 -0.37024999 -1.266
-0.92558998 -0.45945001 -1.571
-0.72143 -0.36950999 -1.2634
-0.69068998 -0.39081001 -1.3363
-0.70090002 -0.39846 -1.3624001
-0.75147003 -0.43024999 -1.4711
-0.80079001 -0.46158001 -1.5783
0.4136 -0.41723001 -1.4266
0.51002002 -0.43746999 -1.4958
-0.84653997 -0.40296 -1.3827
-0.82634997 -0.39748999 -1.3638999
-0.7845 -0.38674 -1.3271
-0.77590001 -0.39695999 -1.3621
-0.68807 -0.38958001 -1.3368
-0.72931999 -0.41569 -1.4263999
0.27502999 -0.4668 -1.6018
0.54784 -0.46072999 -1.5809
-0.92804003 -0.4409 -1.5187
-0.75252998 -0.36001 -1.24
-0.75927001 -0.36728001 -1.2651
-0.77495998 -0.39508 -1.3608
-0.75147003 -0.42735001 -1.472
0.41573 -0.41597 -1.4328001
0.51828998 -0.43990001 -1.5152
0.55877 -0.46417999 -1.5989
-0.847 -0.40768999 -1.4098001
-0.79128999 -0.38738999 -1.3396
-0.73760998 -0.37272999 -1.2889
-0.80132997 -0.45335999 -1.5677
0.40417999 -0.4041 -1.3974
0.54927999 -0.45637 -1.5782
-0.97670001 -0.45942 -1.5947
-0.94555002 -0.44617 -1.5487
-0.76152003 -0.35923001 -1.2469
-0.83032 -0.39522001 -1.3717999
-0.94401997 -0.45375001 -1.575
-0.78527999 -0.37746 -1.3102
-0.85821003 -0.42104 -1.4615
-0.81816 -0.41319999 -1.4342
-0.76200998 -0.42877001 -1.4883
0.46083 -0.44589999 -1.5477
0.45289999 -0.39455 -1.3695
0.55719 -0.45987999 -1.5963
-0.76950002 -0.36183 -1.2606
-0.76441997 -0.36199 -1.2612
-0.94845003 -0.45436001 -1.5829999
-0.78627002 -0.37665001 -1.3122
-0.76170999 -0.37000999 -1.2891001
-0.77315003 -0.37709001 -1.3138
-0.92422003 -0.45429999 -1.5828
-0.81910002 -0.41227001 -1.4364001
-0.76757002 -0.43054 -1.5
0.46438 -0.44694999 -1.5572
0.45133001 -0.39218 -1.3664
0.55836999 -0.45907 -1.5994
-0.94905001 -0.44483 -1.5554
-0.92234999 -0.44016001 -1.5391001
-0.75893998 -0.36605 -1.2799
-0.79273999 -0.38416001 -1.3433
-0.81906003 -0.3987 -1.3941
-0.91105998 -0.45475 -1.5901
-0.80067003 -0.39989001 -1.3983001
-0.74129999 -0.41214001 -1.4411
0.45875001 -0.43928 -1.536
0.44604999 -0.38580999 -1.349
-0.78794003 -0.36820999 -1.2921
-0.82981998 -0.391 -1.3721
-0.80884999 -0.38512999 -1.3515
-0.75408 -0.36243999 -1.2719001
-0.77432001 -0.37378001 -1.3117
-0.78377998 -0.37986001 -1.3329999
-0.86448002 -0.42149001 -1.4791
-0.86777002 -0.43285 -1.5190001
-0.73808002 -0.41058001 -1.4408
0.42023 -0.41016999 -1.4394
0.48480999 -0.40919 -1.436
-0.79790998 -0.37160999 -1.3092
-0.75055999 -0.35038 -1.2344
-0.82014 -0.3892 -1.3712
-0.75297999 -0.36190999 -1.275
-0.78522998 -0.37920001 -1.3358999
-0.80185002 -0.38885999 -1.37
-0.86682999 -0.43079999 -1.5177
-0.70389003 -0.38934001 -1.3717
0.44804999 -0.42857999 -1.5099
0.47294 -0.40019 -1.4099
0.56261998 -0.45504999 -1.6032
-1.0059 -0.45339999 -1.6038001
-0.90053999 -0.41723001 -1.4759001
-0.75752997 -0.35111001 -1.242
-0.75553 -0.35141999 -1.2431
-0.82119 -0.39256999 -1.3887
-0.81664997 -0.39324999 -1.3911
-0.83604997 -0.40432 -1.4303
-0.85938001 -0.42379001 -1.4991
-0.80860001 -0.44813001 -1.5852
0.41613999 -0.40233001 -1.4232
0.46731001 -0.39342001 -1.3917
0.84025002 -0.45637 -1.6144
0.84560001 -0.45548001 -1.6112
-0.97154999 -0.44907001 -1.5947
-0.82283998 -0.38062999 -1.3516999
-0.74906999 -0.34711 -1.2326
-0.84170997 -0.39238 -1.3934
-0.84420002 -0.39792001 -1.4131
-0.77157998 -0.36700001 -1.3033
-0.84025002 -0.40193999 -1.4273
-0.86594999 -0.41604999 -1.4773999
-0.78546 -0.37792999 -1.3421
-0.88989002 -0.43103999 -1.5307
-0.89731002 -0.44136 -1.5673
-0.72694999 -0.35694 -1.2675
-0.76328999 -0.42054999 -1.4934
0.40360001 -0.39203 -1.3922
0.54632998 -0.44150999 -1.5678999
0.56847 -0.45339 -1.61
-0.81985003 -0.37788001 -1.3471
-0.76591003 -0.35510001 -1.2658
-0.95682001 -0.44881001 -1.5999
-0.88200003 -0.41463 -1.4780999
-0.91104001 -0.435 -1.5506999
-0.92491001 -0.44341999 -1.5807
-0.83074999 -0.39884001 -1.4218
-0.84235001 -0.40606001 -1.4475
-0.89778 -0.44003001 -1.5686001
-0.72553003 -0.35495999 -1.2653
-0.76244003 -0.41857001 -1.4921
0.41507 -0.39871001 -1.4213001
0.50106001 -0.41169 -1.4676
-0.89554 -0.41045001 -1.4687999
-0.92941999 -0.43098 -1.5423
-0.95042002 -0.44417 -1.5895
-0.83433002 -0.39473 -1.4126
-0.81292999 -0.38868999 -1.391
-0.85964 -0.41310999 -1.4783
-0.9271 -0.44795999 -1.6030999
-0.89134002 -0.43358999 -1.5516
-0.70398003 -0.38224 -1.3679
0.49175 -0.45106 -1.6141
0.53298002 -0.42820001 -1.5323
-0.97355002 -0.44521001 -1.5994
-0.78296 -0.35798001 -1.286
-0.77135998 -0.35512999 -1.2758
-0.94810998 -0.43985 -1.5801001
-0.84665 -0.39484999 -1.4184999
-0.75505 -0.35512999 -1.2758
-0.9188 -0.43564999 -1.5650001
-0.89482999 -0.42725 -1.5349
-0.83034003 -0.39728001 -1.4272
-0.90842998 -0.43718001 -1.5705
-0.91918999 -0.44416001 -1.5956
-0.898 -0.43533999 -1.5639
-0.7252 -0.35095 -1.2607
-0.67095 -0.36221999 -1.3012
-0.80732 -0.44104001 -1.5844001
0.47347999 -0.43667001 -1.5687
0.40228 -0.38512 -1.3835
0.56686997 -0.44758001 -1.6079
-0.97804999 -0.44567999 -1.6073
-0.78394997 -0.35714 -1.288
-0.94217998 -0.43547001 -1.5705
-0.89918 -0.41833001 -1.5087
-0.91636997 -0.43290001 -1.5612
-0.93144 -0.44350001 -1.5994999
-0.83754998 -0.39936 -1.4403
-0.86343002 -0.41354001 -1.4914
-0.88960999 -0.42798999 -1.5434999
-0.89419001 -0.43188 -1.5576
-0.80689001 -0.43920001 -1.584
0.48243001 -0.44132999 -1.5915999
0.54453999 -0.43223 -1.5588
-0.90754002 -0.41154 -1.4901
-0.78720999 -0.35995001 -1.3033
-0.95354003 -0.43920001 -1.5901999
-0.78083003 -0.36488 -1.3211
-0.81834 -0.38856 -1.4068
-0.83471 -0.39800999 -1.4411
-0.85285997 -0.40841001 -1.4787
-0.67137998 -0.35982999 -1.3028001
-0.81629002 -0.44288999 -1.6036
0.47823 -0.43472999 -1.574
-0.97804999 -0.44244 -1.6082
-0.80439001 -0.36398 -1.323
-0.86264998 -0.39517 -1.4364001
-0.95288002 -0.43891999 -1.5954
-0.84320998 -0.38894001 -1.4138
-0.87031001 -0.40770999 -1.482
-0.88461 -0.41925001 -1.5239
-0.77726001 -0.36862001 -1.3399
-0.7579 -0.36054 -1.3105
-0.72867 -0.34753999 -1.2632999
-0.77012998 -0.41538 -1.5099
0.41955 -0.39280999 -1.4278001
0.46838999 -0.38262999 -1.3908
-0.98054999 -0.44198 -1.6128
-0.80589002 -0.36333999 -1.3259
-0.84733999 -0.38661 -1.4108
-0.93269002 -0.42789999 -1.5615
-0.88887 -0.40893999 -1.4923
-0.86644 -0.40437999 -1.4757
-0.79448998 -0.37562999 -1.3707
-0.74739999 -0.35411999 -1.2922
-0.76159 -0.4091 -1.4929
0.44690999 -0.41012001 -1.4966
0.40235999 -0.37784001 -1.3788
0.46560001 -0.37954 -1.385
0.57473999 -0.44394001 -1.62
-0.93804997 -0.42100999 -1.5423
-0.94514 -0.43055999 -1.5773
-0.94253999 -0.43094999 -1.5786999
-0.75212997 -0.34735999 -1.2725
-0.94568998 -0.44225001 -1.6201
-0.93216002 -0.4391 -1.6085
-0.74136001 -0.34862 -1.2771
-0.67866999 -0.35999 -1.3187
0.41683 -0.38631001 -1.4151
0.45144001 -0.36803001 -1.3482
-0.78345001 -0.35052001 -1.289
-0.83647001 -0.37882999 -1.3931
-0.93958002 -0.42805001 -1.5741
-0.82898003 -0.37814 -1.3904999
-0.85721999 -0.39714 -1.4604
-0.85003 -0.39967999 -1.4697
-0.68124998 -0.36013001 -1.3243001
0.49766999 -0.44172001 -1.6243
0.52630001 -0.41168001 -1.5139
-0.78495002 -0.34988999 -1.2918
-0.75990999 -0.34219 -1.2634
-0.87458003 -0.39640999 -1.4636
-0.87856001 -0.39973 -1.4758
-0.82910001 -0.38240001 -1.4119
-0.91847998 -0.43101001 -1.5913
-0.74773997 -0.39539 -1.4598
0.41429999 -0.38179001 -1.4096
0.49908 -0.39385 -1.4542
-0.90354002 -0.40079999 -1.4858
-0.95749003 -0.43147001 -1.5994999
-0.95485002 -0.43186 -1.601
-0.75212997 -0.34351999 -1.2735
-0.94062001 -0.43334001 -1.6065
-0.92782998 -0.43220001 -1.6022
-0.72364002 -0.33631 -1.2467999
-0.82073998 -0.43213999 -1.602
-0.82752001 -0.43765 -1.6224
0.50288999 -0.43983001 -1.6305
0.40316001 -0.37112999 -1.3758
0.49664 -0.38923001 -1.4428999
-0.98404998 -0.43555 -1.6209
-0.80439001 -0.35609001 -1.3252
-0.78609002 -0.35163 -1.3085999
-0.89231002 -0.40163001 -1.4946001
-0.82700998 -0.37305 -1.3882999
-0.83735001 -0.38343999 -1.427
-0.93602997 -0.43125999 -1.6049
-0.92734998 -0.43042001 -1.6018
-0.73896003 -0.34240001 -1.2742
-0.81384999 -0.42684999 -1.5885
0.45986 -0.40946001 -1.5238
0.57460999 -0.43393001 -1.6149
-0.98855001 -0.43601999 -1.6288
-0.80439001 -0.35482001 -1.3255
-0.74656999 -0.33239001 -1.2417001
-0.85193002 -0.38174999 -1.4261
-0.86285001 -0.38817 -1.4500999
-0.80146998 -0.36535001 -1.3648
-0.93506002 -0.42928001 -1.6036
-0.93914998 -0.43283001 -1.6169
-0.86251998 -0.39827999 -1.4878
-0.73847997 -0.34096 -1.2737
-0.68597001 -0.35457999 -1.3246
-0.81772 -0.42743 -1.5968
0.47034001 -0.41499999 -1.5503
0.54728001 -0.4163 -1.5551
0.92966998 -0.41874 -1.5642999
-0.94405001 -0.41453001 -1.5548
-0.90859002 -0.40461999 -1.5176001
-0.90609998 -0.40498 -1.5190001
-0.93092 -0.42414001 -1.5908
-0.92878002 -0.42473999 -1.5931
-0.79075998 -0.36168 -1.3565
-0.72373003 -0.33148 -1.2433
-0.67294002 -0.34487 -1.2934999
-0.83591002 -0.43386999 -1.6273
0.47217 -0.41271001 -1.548
0.58454001 -0.43472001 -1.6305
-0.98605001 -0.4316 -1.6255
-0.76899999 -0.33634001 -1.2667
-0.77077001 -0.34081 -1.2836
-0.85487998 -0.3802 -1.4319
-0.83585 -0.37292999 -1.4046
-0.81553 -0.36908999 -1.3901
-0.87996 -0.40041 -1.508
-0.78546 -0.35780999 -1.3476
-0.72948998 -0.33291 -1.2538
-0.82641 -0.42710999 -1.6086
0.40860999 -0.36928001 -1.3908
0.45765001 -0.36074001 -1.3586
0.92738998 -0.41472 -1.5619
-0.77199 -0.3364 -1.2721
-0.73619998 -0.32396001 -1.2251
-0.89328998 -0.39611 -1.4979
-0.89918 -0.40024999 -1.5136
-0.76010001 -0.34338999 -1.2986
-0.76282001 -0.34593001 -1.3081
-0.73285002 -0.33322001 -1.2601
-0.82726997 -0.42596 -1.6108
0.44602001 -0.39241999 -1.484
0.45282999 -0.35655999 -1.3484
0.58091003 -0.42930001 -1.6234
-0.95604998 -0.41510999 -1.5761
-0.83647001 -0.36769 -1.3961
-0.86374998 -0.38132 -1.4478
-0.75042999 -0.33151001 -1.2587
-0.72668999 -0.32788 -1.2449
-0.75923997 -0.38661 -1.4679
0.41049999 -0.36603001 -1.3898
0.65057999 -0.43184 -1.6396
-0.99054998 -0.42872 -1.6343
-0.79841 -0.34553 -1.3171999
-0.74904001 -0.32727 -1.2476
-0.79676998 -0.34986001 -1.3336999
-0.81620997 -0.3599 -1.372
-0.76832002 -0.34459001 -1.3135999
-0.71327001 -0.36094001 -1.3759
0.50739998 -0.42943001 -1.637
0.52320999 -0.39287999 -1.4977
-0.80190003 -0.34577999 -1.3234
-0.85303003 -0.37507001 -1.4355
-0.73632002 -0.32986999 -1.2625
-0.70372999 -0.35457999 -1.3571
0.50994998 -0.42947999 -1.6438
0.40685999 -0.36096001 -1.3815
0.50142002 -0.37893 -1.4503
0.65460002 -0.42897999 -1.6418
-0.91654003 -0.39322999 -1.5111001
-0.90364999 -0.39335001 -1.5116
-0.90117002 -0.3937 -1.513
-0.74256998 -0.32429001 -1.2462
-0.75261998 -0.33239999 -1.2774
-0.75042999 -0.33385 -1.283
-0.84034002 -0.42471999 -1.6321
0.51521999 -0.42923 -1.6495
0.47299001 -0.35973001 -1.3824
0.65556002 -0.42611 -1.6375
-0.98755002 -0.42256999 -1.6306
-0.79043001 -0.33814999 -1.3048
-0.74163002 -0.32030001 -1.2359
-0.83371001 -0.36228001 -1.3979
-0.82554001 -0.35997999 -1.3890001
-0.75182998 -0.32835999 -1.267
-0.67328 -0.33467999 -1.2914
-0.83774 -0.42173001 -1.6273
0.51284999 -0.42807999 -1.6518
0.42692 -0.37106001 -1.4318
0.58805001 -0.42348999 -1.6341
-0.79541999 -0.33897001 -1.3135
-0.84749001 -0.36693001 -1.4219
-0.86580002 -0.37639999 -1.4586
-0.67328 -0.33335 -1.2918
-0.83859998 -0.42050999 -1.6295
0.48019001 -0.40355 -1.5638
0.54510999 -0.39759001 -1.5407
0.65906 -0.42458999 -1.6453
-0.96654999 -0.41014999 -1.5962
-0.73865002 -0.31529999 -1.2271
-0.84240001 -0.36188 -1.4084001
-0.84355998 -0.36372 -1.4155
-0.75067002 -0.32760999 -1.275
-0.72240001 -0.31727999 -1.2348
-0.84478003 -0.42028001 -1.6357
0.46248999 -0.42642 -1.6595
0.47286999 -0.39542001 -1.5389
0.56389999 -0.40481001 -1.5754
-0.98954999 -0.41844001 -1.6352
-0.79193002 -0.3348 -1.3083
-0.76089001 -0.32492 -1.2697001
-0.81301999 -0.34894001 -1.3636
-0.80786997 -0.34796 -1.3598
-0.72917002 -0.31909999 -1.247
-0.78819001 -0.38964999 -1.5227
0.40542999 -0.35146001 -1.3734
0.45030999 -0.34143001 -1.3343
0.60132003 -0.42408001 -1.6572
0.66790998 -0.42403999 -1.6571
-0.79641998 -0.33544999 -1.3162
-0.84011 -0.35942999 -1.4103
-0.85057998 -0.36535001 -1.4335001
-0.75231999 -0.32346001 -1.2692
-0.73303998 -0.31961 -1.2541
-0.78992999 -0.38905001 -1.5266
0.43805 -0.37057 -1.454
0.44909 -0.33945 -1.3319
0.58301997 -0.41231 -1.6178
0.66001999 -0.41843 -1.6418
0.66360998 -0.41855001 -1.6423
0.66851997 -0.41933 -1.6453
0.67523003 -0.42098999 -1.6519001
-0.92703998 -0.38855001 -1.5311
-0.89278001 -0.37948999 -1.4954
-0.89033997 -0.37983 -1.4967
-0.80772001 -0.39493999 -1.5563
0.52380002 -0.42264 -1.6654
0.60364997 -0.42025 -1.656
0.66995001 -0.41501001 -1.6354001
-0.99355 -0.41518 -1.6432
-0.79092997 -0.33039999 -1.3077
-0.74853998 -0.31573999 -1.2496001
-0.82779998 -0.35120001 -1.39
-0.82700998 -0.35214999 -1.3937
-0.74532002 -0.32012001 -1.267
-0.74918997 -0.36379999 -1.4398
-0.84956002 -0.41611999 -1.6469001
0.51428002 -0.41497999 -1.6424
0.48988 -0.35773 -1.4158
0.66816998 -0.41242999 -1.6323
-0.80738002 -0.33610001 -1.3357
-0.86079001 -0.36407 -1.4469
-0.88248998 -0.37481001 -1.4895999
-0.74962002 -0.36261001 -1.4411
-0.85216999 -0.41582999 -1.6526
0.51793998 -0.41564 -1.6518
0.40544999 -0.34435999 -1.3686
0.47523999 -0.34832001 -1.3843
0.67888999 -0.41442999 -1.647
-0.96855003 -0.40145001 -1.602
-0.73618001 -0.30691001 -1.2247
-0.75418001 -0.32034999 -1.2783
-0.75408 -0.32148001 -1.2828
-0.78748 -0.37864 -1.5109
0.52214003 -0.41468999 -1.6548001
0.40507999 -0.34125 -1.3617001
0.45298001 -0.33342999 -1.3305
0.67220002 -0.40795001 -1.6279
0.69779998 -0.41870001 -1.6708
0.70968997 -0.41942 -1.6737
-0.81436002 -0.33643001 -1.3482
-0.77768999 -0.32449001 -1.3003
-0.84404999 -0.35407001 -1.4189
-0.79118001 -0.33265999 -1.3331
-0.75173998 -0.31803 -1.2744
-0.74970001 -0.31830999 -1.2755001
-0.74013001 -0.35363999 -1.4171
0.43232 -0.35811999 -1.4351
0.59180999 -0.40726 -1.632
0.60843003 -0.41448 -1.6609
0.68519002 -0.41262001 -1.6535
-0.82483 -0.33947 -1.3662
-0.82484001 -0.34446999 -1.3863
-0.83240998 -0.34898001 -1.4044
-0.68071002 -0.32030001 -1.289
-0.68523997 -0.3238 -1.3031
-0.75590998 -0.36002001 -1.4489
0.47318 -0.38158 -1.5355999
0.52728999 -0.37085 -1.4924001
0.67847002 -0.40773001 -1.6409
-0.98505002 -0.40351999 -1.6309
-0.73865002 -0.34454 -1.3926001
-0.73993999 -0.34652999 -1.4006
-0.73545998 -0.34573001 -1.3974
-0.86712998 -0.41501001 -1.6774
0.44723001 -0.36261001 -1.4656
0.55800998 -0.38418999 -1.5528001
0.61940002 -0.41521999 -1.6782
-0.80140001 -0.32697001 -1.3273
-0.74212003 -0.30559 -1.2405
-0.81203997 -0.33625001 -1.365
-0.79952002 -0.33217999 -1.3484
-0.74155003 -0.30869001 -1.2531
-0.72538 -0.30399999 -1.2341
-0.78355998 -0.36477 -1.4808
-0.78114003 -0.36506 -1.4819
0.44645 -0.32460001 -1.3177
0.66861999 -0.39971 -1.6226
0.69825 -0.41220999 -1.6733
-0.83879 -0.34112999 -1.3908
-0.73422003 -0.30103999 -1.2273
-0.79973 -0.32971001 -1.3442
-0.82358003 -0.34099999 -1.3902
-0.69995999 -0.32317999 -1.3176
-0.75854999 -0.35269001 -1.4378999
-0.73545998 -0.34292001 -1.398
-0.79566997 -0.37356001 -1.523
0.42578 -0.34683001 -1.414
0.58261001 -0.39410999 -1.6068
0.61198997 -0.40794 -1.6631
0.68791002 -0.40564999 -1.6538
-0.80980003 -0.33140001 -1.3568
-0.80760998 -0.33169001 -1.3581001
-0.74447 -0.34180999 -1.3995
-0.80080003 -0.37305 -1.5274
0.40876001 -0.33375999 -1.3665
0.60253 -0.40132999 -1.6432
0.67711002 -0.39734 -1.6267999
-0.85224998 -0.3439 -1.4141999
-0.75743997 -0.30825999 -1.2676001
-0.79528999 -0.32519001 -1.3372
-0.76858997 -0.31518 -1.2961
-0.70921999 -0.32369 -1.3311
-0.71152002 -0.32606 -1.3408
-0.70936 -0.32631999 -1.3419
-0.74517 -0.3448 -1.4179
-0.86870003 -0.40575001 -1.6686
0.4842 -0.37869999 -1.5573
0.49653 -0.34564999 -1.4214
0.67174 -0.39476001 -1.6233
0.70595998 -0.40920001 -1.6828001
-0.88316 -0.35510999 -1.4668
-0.78151 -0.31810001 -1.3139
-0.78921002 -0.32247999 -1.332
-0.69002998 -0.31329 -1.294
-0.70885998 -0.32343999 -1.336
-0.69916999 -0.32010001 -1.3221999
-0.77078003 -0.35561001 -1.4687999
0.5086 -0.39155 -1.6173
0.40393999 -0.32815999 -1.3555
0.47889999 -0.33498999 -1.3836
0.61224997 -0.40136999 -1.6578
0.69423997 -0.40204 -1.6605999
-0.81721002 -0.33034 -1.3705
-0.81498998 -0.33063999 -1.3717
-0.72393 -0.29505 -1.2241
-0.81924999 -0.37569001 -1.5587
-0.87586999 -0.40415999 -1.6768
0.51533997 -0.39206001 -1.6266
0.40575001 -0.32637 -1.354
0.45809999 -0.32139 -1.3334
0.69471002 -0.39899001 -1.6553
-0.85424 -0.34040999 -1.4186
-0.77560002 -0.31299999 -1.3044
-0.76073998 -0.30799001 -1.2835
-0.72931999 -0.29605001 -1.2337
-0.70375001 -0.31584999 -1.3163
-0.70609999 -0.31819001 -1.326
-0.70396 -0.31843999 -1.327
-0.76431 -0.34818 -1.451
0.41359001 -0.33105001 -1.3796
0.58113003 -0.38363001 -1.5987
0.71144998 -0.40501001 -1.6878
-0.92005002 -0.36559999 -1.5302
-0.76033002 -0.30544999 -1.2783999
-0.77301002 -0.31178999 -1.3049999
-0.69493997 -0.31169 -1.3045
-0.69507003 -0.31297001 -1.3099
-0.77803999 -0.35321 -1.4783
0.45964 -0.35644999 -1.4919
0.52969003 -0.35558 -1.4883
0.70379001 -0.39826 -1.6669
0.72248 -0.40518001 -1.6959
0.92966998 -0.37630999 -1.575
-0.74409997 -0.29649001 -1.2463
-0.75244999 -0.30098 -1.2652
-0.86004001 -0.38859999 -1.6335
0.54319 -0.40334001 -1.6955
0.41955 -0.33028999 -1.3884
0.55194002 -0.36399001 -1.5301
0.68649 -0.38725001 -1.6278
0.69922 -0.39146 -1.6454999
-0.85973001 -0.33842999 -1.4289
-0.74457002 -0.29651999 -1.2519
-0.74159002 -0.29638001 -1.2513
-0.68779999 -0.30583 -1.2912
-0.77956003 -0.34962001 -1.4761
-0.88261002 -0.39906999 -1.6849
0.53798997 -0.39868 -1.6832
0.40314001 -0.31951001 -1.349
0.60439998 -0.38914001 -1.643
0.69922 -0.38984001 -1.6459
-0.90807998 -0.35631999 -1.511
-0.74801999 -0.29668999 -1.2582
-0.74993998 -0.29855001 -1.266
-0.79022998 -0.3531 -1.4974
0.53947997 -0.39787 -1.6872
0.41246 -0.32350001 -1.3719
0.58250999 -0.37643999 -1.5964
0.92567003 -0.37035 -1.5705
-0.77175999 -0.30392 -1.2946
-0.88370001 -0.39306 -1.6743
0.54373997 -0.39678001 -1.6902
0.44536999 -0.30575001 -1.3024
0.60503 -0.38455999 -1.6381
0.70270002 -0.38359001 -1.6339999
-0.74207997 -0.28760999 -1.2307
-0.74062997 -0.29120001 -1.2460001
-0.72981 -0.28788999 -1.2319
-0.81185001 -0.35859001 -1.5344
-0.89117002 -0.39638001 -1.6961
0.45945999 -0.34737 -1.4864
0.50568002 -0.33471 -1.4322
0.60958999 -0.38519999 -1.6483001
0.70270002 -0.38196 -1.6344
-0.87866998 -0.34018999 -1.4622999
-0.72685999 -0.28546 -1.227
-0.81989002 -0.36070001 -1.5504
0.49526 -0.36605999 -1.5735
0.48543999 -0.32315001 -1.3891
0.61870998 -0.38808 -1.6681
0.71743 -0.38521001 -1.6558
0.73268998 -0.39030999 -1.6777
-0.89763999 -0.39273 -1.6959
0.48021999 -0.35440001 -1.5304
0.45409 -0.30489001 -1.3166
0.71820003 -0.3809 -1.6447999
-0.86092001 -0.37457001 -1.6249
0.40456 -0.31079999 -1.3482
0.61166 -0.38124999 -1.6538
0.64147002 -0.37663001 -1.6338
0.70991999 -0.37718999 -1.6362
0.71447003 -0.37766999 -1.6382999
-0.93251002 -0.35675001 -1.5546
-0.86272001 -0.37377 -1.6287
0.55083001 -0.39227 -1.7093
0.44427001 -0.33144999 -1.4443001
0.53288001 -0.34095001 -1.4857
0.72183001 -0.37771001 -1.6459
0.72781003 -0.37878001 -1.6505001
-0.91759998 -0.33335999 -1.4594001
-0.90403003 -0.38894001 -1.7027
0.55552 -0.39133 -1.7131
0.57565999 -0.35885 -1.571
0.72123998 -0.37436 -1.6389
-0.91189998 -0.32980001 -1.4505
-0.90644997 -0.32896999 -1.4469
-0.91750002 -0.33423001 -1.47
-0.67777002 -0.28637999 -1.2596
-0.87931001 -0.37632999 -1.6552
0.55531001 -0.39128 -1.721
0.53679001 -0.37931001 -1.6683
0.62879002 -0.38137001 -1.6774
-0.96732998 -0.34854001 -1.5401
-0.93485999 -0.33791 -1.4931
-0.93707001 -0.33994001 -1.5021
-0.95978999 -0.34954 -1.5445
-0.88764 -0.33482999 -1.4795001
-0.68226999 -0.28709 -1.2685
-0.87931001 -0.37467 -1.6555001
0.54540002 -0.38235 -1.6895
0.40560001 -0.30458999 -1.3459001
0.59522998 -0.36511999 -1.6134
0.6455 -0.38771001 -1.7132
0.63615 -0.38161001 -1.6862
0.73275 -0.37296 -1.648
-0.94749999 -0.33859 -1.5031
-0.94505 -0.33892 -1.5046
-0.96745998 -0.34955001 -1.5518
-0.98034 -0.35554001 -1.5784
-0.69018 -0.28814 -1.2790999
0.29611 -0.38835001 -1.724
0.53877002 -0.37531999 -1.6662
0.40586999 -0.30203 -1.3408
0.64090002 -0.3838 -1.7038
0.65082997 -0.38690999 -1.7176
0.65029001 -0.38503 -1.7093
0.63872999 -0.37797001 -1.6779
0.66185999 -0.37775001 -1.677
0.66635001 -0.37825 -1.6792001
0.66079998 -0.37419999 -1.6612
0.75038999 -0.37421 -1.6612
-0.99997002 -0.35597 -1.5877
-0.95023 -0.33928999 -1.5132999
-0.96171999 -0.34467 -1.5373
-0.99005002 -0.35881001 -1.6003
-0.99969 -0.36366999 -1.622
-0.83929002 -0.31347999 -1.3981
-0.68203002 -0.28334999 -1.2638
-0.90683001 -0.3818 -1.7029001
0.56037998 -0.38708001 -1.7264
0.42817 -0.31406 -1.4007
0.48949999 -0.31136999 -1.3887
0.65219003 -0.38747001 -1.7280999
